-0.7803401165790002,2.8723227666109694,4.700983582807154
2.7833362913049413,1.0548228899497687,1.4959197504814281
1.9814050565884798,2.218585604509715,1.3825611370896778
-2.947580610174153,0.18901969725728102,3.436424184767949
-2.642719916873029,1.41858422623125,3.7585268331009454
2.7952687206742817,-1.03032465516901,4.125932797358288
-1.4686515752156704,-2.585466349009379,2.5211807418768997
-2.374818509067604,-1.7859706106180844,3.772544963193267
-2.960950081444343,0.4639778166271765,4.7121587967231715
-1.5489997623375897,-2.528616044108551,0.33115117357412405
0.8909551529693274,-2.8425168384570383,3.1203358010160063
-0.4892383525278927,2.945930201557744,0.9397116098559122
1.5299181119827225,2.5752281551264815,2.895328569826524
-1.0391474641591432,2.7903491555114477,1.376076407668902
-2.959385211184672,0.43142300896148544,0.39753135183566435
-1.7901969285378094,2.3449871079725892,1.7193640412111832
-2.3654827198081967,-1.8081793386780742,0.9923104699582513
-2.839302931451036,-0.8305653684014969,4.888920357505118
1.866499368303345,2.2977552761219315,0.4568002125131587
0.12609598299464278,-2.9589191340416945,1.7195974061781953
-2.1525498593282877,-2.030745073914915,3.8031547553932206
2.9665506862576243,0.03480236577924889,4.901856135780916
2.134840474575971,2.0749699450720804,0.8903400817040857
2.447693918796043,-1.6549067488841418,2.5507134629441497
1.201262344343038,-2.7195344104954224,3.9372940332365527
2.6029331304281436,-1.425147403753976,1.76458064748588
-1.5727251321769016,-2.500301490267905,3.460115669091459
2.140196005744454,-2.0742547552097297,4.266459037028456
1.792421573350278,2.3899554957361313,4.085761929931081
2.9385328551060597,-0.2664128183470092,2.858500444022706
-0.7848614854435497,2.8547551969813827,2.975694040416998
2.3441857680264118,-1.8375846627345755,4.540968681842272
2.809887787690658,0.9831537319395683,0.07877722294561407
2.392634994289774,-1.73426804921206,0.22299565928176224
-0.47275782547826173,2.929325968626425,2.394507121513536
-2.488168773147058,1.5957283023206545,3.990204194942284
2.9579621788400017,-0.020208883943554884,1.494415284932623
-1.9803175890402787,2.2486231060112694,2.0722098466783545
-2.7970325745691724,1.0495178732161032,2.3072254399432435
-2.390963192165275,-1.7681785607829381,2.7396362448086444
1.008355860834785,2.779552657054681,2.888559025405779
-2.9055971151270894,-0.5832422621114218,1.169349329763446
2.1523333314638937,-2.0449531085802923,3.0341089903618235
-2.883122081588095,0.6266359489465689,1.0833199165909373
2.947903158161811,0.37960302073563473,2.652680368594014
0.3914540079632859,-2.950634758648374,3.2737181455673836
-2.4701944219973,-1.6128736158494994,3.0237012891763033
-0.6578109868063967,-2.876485551876378,3.7391051347307664
1.2028379945910077,2.701112768577122,2.9663263237162014
2.0383011599835696,-2.1934452103620456,3.53679705497513
-1.957554243672764,-2.219352990546049,3.5346050126652555
2.4538155527288827,1.7128756143415562,3.8680368539105143
2.9591200564838163,0.16970100265583252,4.223365051230747
-1.8560470857545734,-2.3005580266900334,2.277850188141109
-0.4844921155863253,2.9514920527830024,1.758594592704289
1.401685651623336,2.630651174618635,4.7988783160466495
2.9526307928912763,0.06219377286861568,3.283567259995333
-2.8032862166167742,1.0129218408557652,2.8408559951015464
1.6054974989170878,-2.510824746796706,4.232369790759916
1.9846106705668174,-2.198560412107844,2.9338597456958206
1.765835103693555,-2.3937764772748227,4.790699397692344
0.35952556860244267,-2.974286918363099,4.066622344782916
-2.306734735167355,1.8689793961351975,2.920181050781842
2.8186394914737813,0.880770826396443,0.6494948072132156
-1.3646475279322445,2.6158119095036794,4.324697690720701
1.8323299527342236,-2.3345445577011485,0.060196418597123214
0.4465488340685741,2.9186274295254835,3.7142416138496372
-2.9273786596565934,-0.4980637074095833,2.045521565946096
1.1667567262260423,-2.7533783697719003,1.6722377932657084
0.026882788850563385,2.984346355223811,1.5776452389096307
0.9750403940976157,2.83508890876826,3.0161471573250602
-2.9541553929626443,0.10940268907738471,2.045881151835509
-2.9627497829303784,0.12464967150119444,3.932079036060399
-0.6649294153113253,2.8754778974058524,0.6222948619808216
2.9460872228512565,-0.5418792351934357,2.923911110724045
-2.753301244489384,-1.1083066313056855,2.186486033662379
1.3369077610657345,-2.6331379827934347,4.067006461471437
1.3061949287958803,2.681460680679944,4.768833921380889
2.4765552893899305,1.6604606410738179,3.377239799559252
2.7476771904366166,1.1496603845447362,1.6562123767523556
2.96470017440626,0.4467187529601802,2.953838867906749
-1.8207217187389861,2.322940210620666,1.752236670861701
-1.7006637678446666,-2.434551057619185,0.2889372542032431
-2.9353232816088437,0.488850567271088,1.6572968874486882
-1.1512852057619916,2.719601409608493,0.6462579919058148
2.6103323990363703,1.4521942044646887,1.8623205610373306
2.874442302581538,0.7531224975637193,4.206682834834926
0.8750520821141361,-2.839314335469526,1.8120207467225369
2.354265358265731,-1.7977374760933826,4.281360427069195
-2.9045483398455194,0.5605434246043735,1.261795612254097
1.1693975233958505,2.7257308980429396,1.9053558949645018
-2.6098367074480953,1.4206969181397802,1.019917978039338
-1.129017318958151,-2.748830661968511,4.2895040216649765
-1.5652060081745518,-2.5139742477670093,2.784387323043009
-0.06971099171383414,2.952057248020234,3.649117296816844
-2.4367714234193856,1.6932580234480739,0.5751561181190845
-1.0810776677394955,-2.781965523693835,2.8169227415057363
2.5711241172403607,-1.462335684433184,4.107171844351449
-1.5961679794999843,-2.480893465851074,1.375508950171157
2.931458874160065,-0.4949090482085484,0.904523784939476
2.944120877688984,-0.4170740696815578,3.7587513172406117
-2.395080003573904,-1.7222600020581733,4.194500702845875
-1.3787395533431157,2.6281131494393377,1.0585458133330128
2.3892860387106514,1.7521045684766494,3.3719782553062787
1.5210741941488928,-2.556201853117729,2.8084114847327513
1.5839735770695467,-2.5080769767099307,1.5425322325740813
1.5843600905674147,-2.4986116843174693,2.8263076605762736
-1.9720424295851933,-2.217364770197089,1.7625270175211605
2.0399802446618596,-2.1587214490601343,2.562846798562908
-2.266310738380042,1.8937419766403623,1.4003898744979981
-1.0758780649125983,-2.7941129739274415,4.719614997958825
2.5482872990401577,1.5600359605730079,2.4149264486686324
-0.5435569435410608,2.9212365325938667,4.4512457439605315
-1.804924695162807,2.34181926763814,0.2292306673660438
-1.8975513472940226,2.3217666893294964,3.787708174044737
1.2480194012084482,-2.6766494716361766,0.8167094687030396
-1.0722324652739115,-2.7857158579954935,0.194108806616205
1.4404845891118006,-2.59946244602011,0.14427896527476392
-0.7152205360492428,-2.8983040674338207,4.312571740850622
0.5659392841849307,-2.9227147455333244,4.571952524209676
-1.8364719397225402,2.329989870557347,2.5513556763156604
-1.9427691154086215,2.2389500405884313,0.5753695965286615
-2.436032430896214,-1.670623879604253,2.7143446545877916
-2.436579793914613,-1.6656402530753307,1.0001004514982137
-1.6370190302423517,2.4893444623977348,3.3079528500314264
-1.388020250155586,-2.6479621838762215,3.5948500353563553
2.4002202961826926,-1.7487318509695473,2.873828561319774
0.8480996811224534,2.87491314642568,3.0975364782692565
-1.5582236232980144,2.5551047790074093,3.4049216650621146
-2.303408562248817,1.8634257771777678,4.1744757889986275
-2.8059755733202763,0.9388975168863862,4.8246052480680754
-2.310966615371281,1.8817588524732805,4.162145701228897
-1.3956203819461257,2.6098913968445823,4.051132360686578
1.1094209512928028,2.769432571809958,1.6476400640914401
-0.03337976655443383,2.972494185695442,4.778840422387338
1.8584433571934853,2.3453892284359847,4.2928411751508655
2.995660177826056,0.012479560459200914,2.43762099472413
1.8118766316357333,2.3676760517283837,2.9172627193212803
-2.901950788231596,0.5889182262182787,2.2734326592331584
2.618637329296758,1.4549381847839555,3.489421009936806
0.023541147031996452,2.9524646869413718,1.4237055856389502
0.14451204304913634,-2.9747859492821243,2.6851737644442952
-2.610780143715801,-1.3769210797603286,2.5458955048780214
2.920009269274769,0.42346202498944513,0.08705481072038168
-2.680829933727128,-1.2519502608710766,3.211285034284717
2.879950979398826,-0.8243934520403543,3.8934737638539567
1.8788582113709424,-2.2773700589111354,3.7746905804598443
0.08880777640499433,-2.9812324569522244,3.78933718734278
0.5032741010065159,-2.9492665930553095,3.206769454597093
-1.5262188430049992,2.5311148448498453,1.832418281577168
-2.440696610461541,-1.6839248837126466,4.408326384949573
-0.22517380253318864,-2.9540308864433333,4.358196676025709
-2.0405097144601676,2.1711260120699967,0.5479294726564271
-2.64674462467188,-1.3072482929735116,4.79127730373902
1.3480660862814715,2.651691850389589,2.56822659495703
2.7608880888635747,1.0645836373708726,0.9473281809119516
2.067396288826031,-2.136263399316761,3.3800969379741046
-2.6300330309320867,1.3750803692306974,4.19760609369442
-2.0270872997612037,2.1525328631187883,0.03254104652659073
2.604994473025263,1.4284570602751954,0.3046673980236614
-2.6270823826772887,1.4248310331293403,1.6330048957502563
2.9248594419266123,-0.4909971092511349,0.33209834872840405
-1.1815140511165996,2.7033197376932687,2.0704367208353798
-0.47861482728917504,2.9292902104350125,0.5563065025912511
2.9493498326558276,-0.20799468839478522,4.199760636156521
2.8552331760972995,-0.7451930860002846,1.5410115021111164
0.018465166987574246,-2.992991469044553,0.2470324237705096
-2.5403637021085954,1.542446073868676,0.14893515519276979
0.9637404591292119,-2.804626167817243,3.0114857485819084
-1.618951543387274,-2.488239401586689,3.1638856408332323
2.9448943397826652,0.25315685768150653,0.7644581209893214
-2.376987446615109,1.7535976978635055,2.9288694355180427
-0.3849521511803458,2.941530604688208,1.6228281778561988
1.1804252450148154,-2.7517754976980475,0.42291791972654147
2.680878681732765,-1.275163310272309,4.260411548789286
2.7136932530628677,1.2189042172473903,2.448866001587429
2.784365821328654,1.022577864940406,2.1928083504488867
-1.5449823291894622,-2.5215631305827517,1.527287027508366
-2.9628063383312275,0.11591177251869009,0.281207250002779
2.9597422312787773,-0.20900537300252545,1.0918589775943066
-2.946859543065821,-0.19807125107202972,2.1010115427008342
-2.955700949934504,-0.505192128666605,1.8075976797657023
2.7336183265806495,-1.1910156312314053,1.3956498732242633
-2.3164938107272888,1.8903188980724086,3.0776510145035454
2.5103694040479896,1.5758941582475003,4.729132663095244
-1.9905295161810646,-2.2420877771393024,0.057596725082069145
-2.7525571981060977,-1.091465578283896,3.957568822501976
2.7440637488258797,-1.1848297782706545,3.46249919167168
1.5551194415932978,2.546664759498468,2.1314545697697445
2.9606577534806364,0.20807332775910375,3.7292813365957738
0.1835503704708476,2.959446900860429,0.5248161766416903
1.3018955701438133,-2.6484926234935986,3.5343630496544964
1.748395878327032,-2.432604479922668,0.17011480613210617
-0.11353720663588966,2.9717920192930367,3.8905321101878494
-2.592709269159115,-1.4466385037025462,0.4326614103426135
1.5563123520790452,2.5542062118204654,4.653207429949679
-2.990584650061072,-0.17843451036450458,0.5921474145180478
-2.0342916287005384,-2.1738955013721224,0.5960578793880633
2.1577255590187208,2.0752242421193827,4.531538945393328
-2.5907167529712516,1.4812200576102756,2.4868636016206738
2.7561276957174283,1.067209124700262,4.681106352761775
0.44392197636963576,-2.9506497215908674,0.3273212144887655
-0.3477971536702884,-2.9544568384103087,1.192211828478118
-2.137374817605787,-2.0559482325600498,4.653303673196977
0.10947308736883686,2.9922878079941895,0.14037219463131578
1.0679202228075595,-2.7910657951348576,0.33564067033470535
1.7841954282031762,2.3827590012814794,4.936104474142342
1.7955556626264988,-2.3545848281984028,0.70006971255688
2.0368275829269797,2.1425887367925127,3.076741760687118
2.4209073680303024,-1.7101654501860593,1.6279330888932475
-2.1872883953645044,2.0430144529756795,3.9999956516737405
1.9201762610239095,-2.287209084901184,0.7280957869314703
-2.3341449460365054,-1.8383091490591386,2.4409523135568727
1.8503999281584897,2.352022552637823,2.245112970213362
-2.8741439564102684,0.8122285531216579,1.2576537056413084
-1.3956777998735463,2.622064132480515,3.9898405388967535
0.9655481689858625,2.835900353571168,2.683760959943289
-2.113168338599874,-2.0720946251907773,3.8257915866070706
-0.6589526335311028,-2.883745770871764,3.9565306578287247
-2.567793008563941,1.5418020654697082,1.4408791312958813
1.4660376058186728,2.561825356357578,0.938061114215914
-0.7908601731932852,-2.8817387385602404,2.008161237868198
-2.507202633512809,1.5803067349461375,3.559767056933806
-2.6252961122890746,1.4079105088330868,1.4321346599103102
-2.6341060995377696,-1.3545088411335067,0.7167391093878794
-1.6089795771034918,-2.5113534289915127,0.5786298461333272
-2.191073807455941,-1.988813865628063,2.126701500830353
2.928474384955879,0.5220324749570026,0.991664917706277
-2.9583660451459513,-0.06010240215967305,1.770008784321722
-2.615535297249833,1.4310593641960803,4.32865909958622
-2.4143561748546354,1.6985787735831916,1.4321243563805393
0.022637026954650415,-2.992596250804605,2.6695399161717153
0.5455971973882829,-2.900108799637824,1.3657020704056149
0.7113428150700367,2.8893576348277406,4.692663008927342
1.082262106359562,2.753744166966814,0.7651342006739065
-2.8243993487312284,1.0065668666650962,0.8241406261879503
-1.2084148976456632,-2.735608620263436,4.891169244284287
-2.95578743982662,0.048621385617297744,0.6123700947378313
0.2616725342808656,-2.969616523171825,3.52102764299594
0.8767724443393959,-2.8577322685319166,2.7999646346530573
-0.9709195622803205,2.798084016596575,4.4571319609860485
2.8901211981815025,0.6969112579520894,0.3896837424994698
0.3755779841112967,-2.943125010565351,0.7069769866790976
-2.757782656126523,-1.1218788892502818,4.031566486802439
2.9485497884711105,-0.36412555672254393,0.7331240507233105
2.148770606326781,-2.0909626487693083,4.236569592801936
1.836648433953774,2.3518727821077765,3.459360296545761
1.9297742494147037,-2.2756488816268616,2.063268535129048
-1.1292356063984577,2.7390460554774787,4.99255592557215
-2.8283661145353514,0.9852328127901234,2.8707589227664094
-0.8500592448123001,-2.829613401653518,0.8949374512506703
-0.548612824315954,-2.92411482675385,2.37268118180514
-2.6599070985042514,-1.3698135563508478,2.9424379962599554
1.9778874307244658,-2.216756477971558,1.9205710130663038
-0.45276858096490735,2.9575320431331633,2.3706238577490053
-0.1821943146979173,2.991111006248861,4.509860637558329
0.10246077394068236,2.97192880486104,0.7281557777757042
2.5942330439084733,-1.4515421898397796,3.041178144561676
-2.8594050684977232,0.7600009853708606,3.8706083542714236
-0.8769871568843142,-2.8597804283066854,1.309319903552677
2.9828133542058133,-0.10220312277250093,0.16801314430292758
2.5251311351189507,-1.5930280550431717,1.0458630885152287
2.890108146429443,0.725753567318336,1.6324770262368105
-2.4355734436173813,-1.6717396497983712,3.7359607537422574
-2.7567134899007284,-1.0685361129507516,0.5438418668034212
-1.6166511456721406,-2.5183483117079377,1.436927066285666
2.8730860077815086,0.8590890659458125,4.400856656535383
-0.5766198666653156,2.9183878750148935,0.8461193921171978
2.222365658085781,-2.014710399675208,2.8124864910428964
-0.7202703928489471,-2.8734766060719923,0.3324894790852234
-1.010241606736327,-2.807483460507641,0.5241966951629179
-2.2587806579247096,-1.9486943899978613,2.786048714390094
2.882303725806928,0.7383477105529115,4.3507844633757875
2.6624432382219303,1.3047776922005025,1.4393168974030317
-1.3394740178656677,-2.6803807552663237,4.9582555717047185
-2.409919384923509,-1.72409988209572,1.0620366849392253
2.7349645251716117,1.2318259488444465,0.7046225525756356
-2.0317032667969244,-2.192119214286733,1.9075321011538737
-1.7765252239670282,2.361402923764264,3.733244678218035
2.710783680597185,-1.2796812697922835,0.6118243601370987
-1.270419935741325,2.6791064706356367,1.9299991199587108
-1.0787109690899057,2.7819068714120903,1.245461483634334
-2.9397883583956177,0.45890604080095854,3.8102823961568335
2.816424225106933,0.9454594535271362,2.591470687543966
-2.1717089568478443,2.005914023683153,0.10860644911944384
2.7279640606966296,-1.2417854041276364,2.6359795315896233
-1.0809085229757158,-2.779946542482091,1.4496270055254619
-2.793270777797875,1.076274912936582,3.66343482372121
-2.945213286931211,-0.34877083562206207,1.1598537667563635
-1.4541053999516733,2.5891468775524373,0.2738736522052493
2.6961436974368973,1.2562479964248914,1.8785470168620773
-2.941005135391162,-0.34914410707222254,1.5252634152982847
-1.0862502001720415,-2.7745377087646927,0.4960365436908065
2.1770032867001583,-2.0331938213591276,4.649149473819934
-1.0614873887667589,-2.7782310431388773,0.9099176470945519
-1.0378819598513072,-2.785074643551655,0.4057522687947074
2.9772551330340176,-0.14014658509462438,0.678547633460011
-0.9636629402178832,2.8266438225593813,1.9843862991244747
2.9668017409273344,0.05382111494961602,3.7843645842277396
-1.809571923276391,2.360610610751888,1.761238391047133
2.920143457564388,-0.5698248728041205,3.9086315760497428
0.38129851628990336,-2.9749284751703993,4.07847419434855
2.4537900619182094,-1.6702228310285336,3.17603035365047
2.4219281498927296,1.7242776905195059,2.9505583083247577
2.9191876714256453,-0.6813128495860283,4.025675090963267
-2.9718634045561667,0.3368129789084072,4.901664272956471
-1.3625178564069547,2.641240322794157,2.9574032654881925
-0.1781935102195253,2.990278614550527,0.753395708652374
-1.7172005355040385,2.4285548001975616,3.1809230858377227
-2.815211116583774,0.918761679906282,2.519563418380817
0.06007465633896554,-2.966063710348602,3.5075305910459798
2.21649395874003,1.9995572985226113,3.023363162545049
1.6195587721370237,-2.507472229503755,1.492107805130587
2.968600839795633,0.011120660893015749,2.634149552825421
1.8510357256699985,-2.343787355330387,4.30591002943134
2.819061974472793,0.9375364922440564,0.022111879567572323
-0.6277665685777207,2.909342986316048,0.11096442350220781
2.0885322186352564,-2.1132479848121353,4.915577256430636
2.9599437411497167,-0.2583239593616135,1.7328644802692912
0.8463652169988305,-2.829320321967961,4.269962919841429
0.6687474922331765,2.883554096742833,0.8990558205846172
-1.0493935837075312,2.7680485144858653,2.8441663839587124
-2.310365470988817,-1.8898253163123948,4.94648578649204
-1.3622062150417622,2.637100318026303,1.636857807965173
2.8643514859080192,-0.7137599893226045,2.6257760043870566
-0.38873771144343167,-2.9440254191716377,2.5951417926815123
2.9569302369317647,0.022045722208363507,0.8925794576473861
-0.2625313979911657,-2.9476554638948027,0.3132398851176771
0.31100913019432197,-2.9502645078075376,0.86853480058035
0.0629098161672744,2.971958629490821,2.506311273796467
-2.258370531384898,1.9516723709283308,1.824996095262073
2.5872032274638177,1.4403795895805,2.7091674873197102
2.478435495898038,-1.644664955312941,2.7313356743111723
-1.8698324956716583,2.319553101114392,0.9540844774986895
-0.890774641074703,2.8151730380393456,3.9672489122621952
-2.849596948560097,0.929081153321591,4.876604567675348
-2.603635902886224,1.4018995531099439,4.302289150249086
2.6386752530026802,-1.3317795861407313,0.8073525345169341
2.9764762765955384,0.048517472015388044,4.487835842966332
2.6560499490462446,-1.3860300932499872,4.245220958286346
-1.4666850645395293,-2.583973487312456,3.517686329768398
2.122989081151039,2.081208757186466,4.563257698768432
-1.7814285990718481,2.3881013657820542,2.904403345512732
-0.3668226822970452,-2.9515513270255784,0.6988444875853994
-2.8553501463526594,-0.8309716681755507,2.931254693650958
-2.0559338482833165,2.151175878266033,0.5103967344869281
-2.3501663498107597,1.862906725599173,0.3110873613621201
-2.528568440022793,1.5490599959887308,4.889915242170852
2.80138212849031,1.0421200008006213,4.88041187379438
2.33890153500046,-1.8330819606055566,0.2400357002952519
0.6560403022299282,2.8810512374515778,2.0383045764324397
2.4313388236564766,1.731553946512417,1.1763339671981177
-1.36660103108868,-2.649843398096887,2.907586958657413
-2.605608716698184,-1.3838455246028298,4.723395970358762
-1.404289803489549,-2.610468388828442,1.7697921784037747
1.1458760851203365,-2.7357525174707904,4.817368743690067
2.960220578875016,0.20035743541904122,0.2788989981059259
-1.9852174320597562,2.244626437108656,3.7600311921770113
1.0546390291892322,-2.770605005239249,0.6062837332247673
-1.117564014372141,2.779651946158424,0.7035358433070893
0.5102069950571597,-2.933923254761826,1.2656888641426811
-2.813316815404749,-0.9177216311304722,0.2842783162965229
0.9447760740705371,2.808392320414086,0.407416281822518
-2.781134213517379,-1.1240031253555842,1.6612586822749793
-2.9730117302442918,0.3243232219790404,1.6346168130437932
0.15373559741335927,-2.9897684927108172,3.458055737074944
2.9833601767593634,-0.16496241667920009,2.8376564989688235
2.4047662746352403,1.7796939545516035,2.288448348482244
-0.4723821779897494,2.957423761774749,1.3671914226289117
-1.1984268225581052,-2.7132737290514597,4.628961808127635
2.3266543718848656,-1.8533206189047364,1.852926858461557
2.871963820543639,-0.8423748520857306,0.7480185957309526
-1.2543458022631475,-2.6781791901264516,4.264261759972248
-0.09042217890891384,-2.9693959008899107,4.142213327876815
2.4160681494567755,1.7325554677570996,3.00285088024296
-0.5285309540043054,-2.9131224493948458,0.08168978348081557
-1.4665124184262885,2.5875034312573577,2.2708789357274077
-1.845645764251714,-2.3274565932245888,3.638549664018144
-0.055808564850250424,2.9666808592902383,4.6622669321052985
1.6056407375699888,-2.506292733782543,3.6317675683721817
-2.2151007419859274,2.003700255525436,4.802469956241298
0.7779876984454787,-2.8551665252330096,0.2713008797955413
-0.08324469483056735,-2.9924214817975012,2.662671663954088
-2.259964001163926,-1.9087537443405982,1.022993958812735
-0.021536718313603993,2.992521299671691,0.42123318099021034
1.8926697335128355,2.3103499780899774,4.236021192500152
2.9428078925637173,0.23185041393919384,0.5367873989852778
0.3571294364682652,2.9509310610867323,2.5804604402800377
-2.108487307841923,2.1253471114975864,4.531262023558603
-0.8039003700235223,2.866984005476598,1.0851781096579727
2.4106284643567077,1.751099487858118,4.598558696812994
2.7809679253794304,1.100221334191005,4.562167950644898
-2.3468450086734687,-1.8350707719145913,4.10045490144916
-2.6070732607468203,-1.4195555650059064,3.724590027227244
2.529764514727655,1.6063947585618392,0.8126927792881994
1.8621550560375564,-2.3118427738084963,1.5267157792077484
-2.892201890852231,-0.71976984280823,1.3747545333913807
-2.18502502760903,-2.0041430607490263,4.292036356004079
-0.8326188498142482,-2.8709728734754965,1.7685189793001892
2.9295890928455366,0.4241954431394378,3.7114733988917092
-2.578246788285035,-1.4804790295597137,0.4282559748336784
1.8786829135416099,2.2891546683620927,0.33850199699789585
2.9200368720981316,-0.6644496418135413,4.2545092521331185
2.616354089144629,1.4576941236285283,0.9514476515755466
2.838023192315746,-0.9147255049720858,1.298559141935759
2.1923339866973603,2.0031725607254094,2.5892204600877666
-2.7200801054273014,-1.2552740664454558,4.106851814229635
-2.7460085471500926,1.1654740902950422,4.434496895293033
-2.46794979892015,1.6738766143433583,1.6901863162118498
-1.480029204266801,2.5971816359321838,4.702605896289789
2.756936256012652,-1.087736208973121,1.1553339644149352
2.835230767406789,0.923491050840666,3.9239936048140573
2.237665847509695,1.9938901900312953,0.12340512397129688
-2.9436326773639965,0.25551859096012897,0.37212467336783905
2.5196459273194987,-1.5402114760202856,0.45790352569897996
-2.650328662618156,1.3634040816796287,2.2299269355805844
-0.9854259315457681,2.7990444795723533,0.4565187822331096
-2.950812737261825,0.41756978074889156,3.2953828652899446
-1.8297117086202948,2.3244307545726777,4.9903726211421855
-0.8958125891469617,-2.847558921758507,2.9758558019229886
-2.5792767506151653,-1.5277755093487384,4.894036102000924
2.980069645847357,0.3123369885371951,3.259525382416392
-1.2464079533579768,-2.6799637639915272,4.249334161095061
-1.1301127928311199,-2.7376716955365015,3.0262059233812626
-2.9048598817381572,-0.7028404026228439,3.991628609519791
-0.9586215906452982,2.81052603052728,0.9521057328899379
0.44523252202928015,2.919198953579485,1.5226580170775645
-2.9385142165388682,0.49381197294217627,3.2143052095893854
-1.1344352568296077,2.767529954038835,4.532137038017991
-1.696832966396164,-2.4449985738595723,1.6249392551751063
-2.8654839198779585,-0.7012052639154284,2.776438919479358
0.5003050151155422,-2.9294209498226462,2.7100541375306224
-1.2167080986508783,2.734654718488934,4.0096440668614095
2.1316682375177574,-2.0530962825384487,4.680214705299246
-2.816824619241673,0.8813059122670409,3.119885358892315
2.9770029072255424,0.2889983037053619,0.23430555636091033
2.3389697246435794,1.8240699402136968,4.058221962221643
0.8041847030062327,2.8600665971092805,4.703613250047699
-2.841429473543484,0.8556536911080522,2.022610779576024
2.0694365385621225,-2.153178422896921,2.900916896981551
2.942376941247765,-0.2504631121199278,1.0411973953929117
2.868245177574213,-0.7205844995812539,0.8701205279029589
1.44312931566891,-2.6031270885082214,1.6313969330451354
-2.9426092164034077,-0.40747259821938475,4.469072927234604
-2.365954309451131,1.78893801766547,0.9207770888111771
-2.9038729611067042,-0.6370782694833217,4.8547873618483015
-2.1947877845615755,-1.9935969027588736,2.5999452760904758
2.950229759904207,0.20937130603056733,2.9055692424312944
0.7931114140087053,2.8923356604024137,1.4925073019954853
2.8653974421043658,0.8619942977746582,2.7103418273421136
2.9156529648884026,-0.7051214566794479,1.1683477926932988
-2.8651302675124075,0.8861283215219581,1.4638697205818363
2.44441608826942,1.7118985381412868,4.479466239289097
2.810874718244768,-0.9974741707337866,1.0932158783395252
1.68890369345926,-2.4407976518415464,3.2875032049986777
2.220030633418932,-1.9545957541990118,4.698145071776168
2.458095959331002,-1.7011151938066673,0.7748712012034736
0.5606098444407828,-2.9161315984042866,0.9262989365553476
2.7611483011967777,-1.1181106166804848,2.1475254934606545
-0.6411312351691743,-2.92496093703352,3.316736915282514
-2.931624535953112,0.3847770334006329,3.8748138408447144
1.483046878142797,2.5573709319438938,4.347482055597325
-1.1552651891704455,-2.743262303266016,2.1200762739305983
-0.45001530490537517,-2.9562440182492082,0.5782149203833581
-2.852593922051889,0.8705105635354651,0.14591211899815715
-2.9173105930606065,-0.5732934376364807,0.5437227621715413
2.8851490435639557,0.6460913229052055,2.6738502998284956
2.6788000827719958,-1.2894502256772808,0.5927091850741029
-2.6606165662157726,-1.3763930623860745,1.9008472621388601
0.6069105021567959,2.908420055760566,4.497704579141185
-2.133945197176627,-2.103433101100474,1.1428778102217012
2.0066229062499827,-2.2017296563755813,4.071464335496325
1.561225251764586,-2.5128981924140437,4.319611707731078
-1.4628625981941885,2.5889084117092818,0.1559065214407701
-1.0517442479372001,2.7801657741390207,1.4013145094578972
-2.580025999100759,1.4738955850527276,2.0439143745501847
2.5016565647602436,-1.6422674801581527,2.038489760308279
-1.604751764544428,-2.522585489931628,2.778459924611585
1.7409818594803455,2.4284969225169855,1.7728280207241198
-0.4058814614485767,-2.93012995919414,3.0531850853877334
-1.815081718271471,-2.3649871261048467,3.2037463867888643
-1.7959480027366868,2.344363172070262,1.934702935947004
-0.4194983993254575,-2.9544133703985094,4.542804856923271
-2.003908579861719,-2.2219462342994483,0.5071694061275395
2.7631612168763877,-1.0863435151363343,4.481368414088334
-2.9691016695893744,-0.05082201035617069,2.206614959980061
-2.553030279730718,-1.5645823568308128,4.94215028014057
-2.9648589482961594,-0.35420051903509986,2.816095641291167
1.681747226583348,2.47062103548165,4.518530705196032
-2.238077023426601,-1.9716006801706885,1.6641545570828153
2.5147848264502985,1.5590590289866844,3.3616547800179752
-1.421041763848316,-2.6341687296094025,0.16819401426051372
-0.8585424801572711,-2.8501829578145497,3.28363028363009
-2.5215639590814853,-1.6087535146561052,4.007956636112757
-1.8847408958551572,2.2964802762390137,4.906358667846081
-2.2315695103592117,1.9791752613358418,0.9234239413467982
-2.02466411993281,2.173651961628074,0.9342028154778104
1.9269182733553198,2.265690293783774,3.7715704109357784
0.5434018317005044,2.9276082773689875,3.9436214229981226
1.1551627056677547,-2.735559161749612,4.6902311155547975
-2.5502442042282434,1.5753330278351176,4.497963690851127
-2.2996682464185616,-1.872566734597489,0.059556367614119754
-0.39753443860710114,-2.955732955770048,2.5049713488413987
2.3645961494148766,-1.8341875879425527,4.228934600995667
-1.4461620545820346,-2.6200636018567605,3.7532346556457785
1.8912871826193463,2.3076591867262253,0.6240117205024154
-1.6835487477495565,-2.432897651849984,3.565275609552125
2.901626947591729,0.755510029030879,0.08664294584387111
2.906546049582826,-0.7023988312221868,4.4400551730725
-2.8122892709484257,0.9589436967671203,3.562704887022849
2.5068436346482206,-1.5614893676056398,3.1775457034116257
0.9865670527401694,2.784825990955492,4.922270212342125
0.25158822257387653,-2.9662896615111807,0.9086621968760256
2.978510766942035,0.22894482639492444,1.483313345003826
-0.08412368778792587,2.973693515940034,0.8485087868077046
-0.8223986499478152,2.8645565279391705,0.28639450593499316
2.9185151619810723,0.6208469330948453,3.977786662598322
-1.0397235514759904,2.7665153428357216,3.8564031503867398
1.6240434352174273,2.4864253871080866,0.0813565056336446
2.4887319960852916,1.6261364055233678,4.600671250664973
1.5873430737666019,2.5411339510255124,3.4102253788088586
-1.2165598206223294,2.6942027939212223,2.271103053891912
-0.34351575347825675,2.950253098576691,1.632518496556092
-2.8074132504113174,-1.0094161467181146,0.9039436375373
-2.1472180709926167,-2.0570346340924957,4.7342752020173755
0.9310257593081288,2.8035205421682816,0.978002247825025
-2.97077054571752,-0.013245696058654537,3.6479268123965385
-0.2594736955703332,-2.969592444487097,2.707390409857747
2.1614948188122507,2.018668738172361,1.735078442211095
-1.5967107547414856,2.527585570028831,3.5823652924699156
-2.9807472519069558,0.03384616170207915,4.634387831728126
-2.8663622851775608,0.8377916046769792,4.47581621941236
-2.1302288309756414,2.0895174200740745,1.3044594077179466
1.641611217798719,2.49772965512848,2.453057369700299
2.9175117235312236,0.5232272028658081,4.005261714392415
1.1851053342975344,-2.737096532937363,3.804522166329163
1.9012325703085293,-2.2863848413635672,3.4308277863846577
2.5980338706823884,1.4941409343506646,4.552737501712074
0.2708490768365748,2.9625426939675954,4.609518628594361
-2.881627776269492,0.7199423335126762,3.5313580300242986
2.6953184023043844,1.2738581153580606,4.819470452557705
2.9069064170700947,-0.6552918739135002,3.96730496406976
0.05384192754931268,-2.971610986687244,4.407159494555168
0.27254191690938584,2.977914399878935,0.7096862230205386
-1.3951522035194877,-2.6161188369622628,2.0177134150282
-2.3263350830786207,-1.8555335769805248,0.032021347554278545
-1.8250555042083882,2.372413622034659,0.02731111341895076
-0.12442158650153952,-2.9569763543335847,0.4214773171828595
-2.607172418721739,1.3984580845892292,1.3681426727577333
-2.9375921460661942,-0.4933037165479951,2.004107912881485
2.777886542045322,-1.12173906612408,0.04677317287857141
0.7040922415150106,-2.8882435387319765,2.572263307008696
1.2097140734945715,2.7002964305044097,0.036817575386691725
1.7989338776750365,-2.3489884314428626,2.377118177711654
2.967226516879576,0.11545722852123243,0.05027130181190498
0.8934381278630691,2.837180328523615,2.7282764800074517
2.180288671986061,2.014614197434241,0.16752494620524527
0.2492761825243118,-2.9581918187033938,1.6417936142550882
2.8911264919649904,-0.5948165171463466,2.1872987898829868
-2.2313836035646215,-1.937268031374341,0.7326614259174508
1.9831735940661446,2.2407400631418275,0.4373957910191528
-2.0356355517388844,2.178016331407556,0.9634924730517563
2.105189449987301,-2.113695104089221,0.564056408971399
-1.5030369053253507,-2.5440942080083824,0.3408579507597487
-2.968683030319276,-0.25500576173265355,0.5958901499432012
2.980298641475903,-0.31081330982838157,2.7454273123574
1.1901130728900031,-2.7240730621598748,1.710145010955273
-1.9459201023628785,2.2240285412221596,0.959626357093713
2.3757487461383,1.8054367251198193,2.9862797301281945
2.9324106231211178,-0.32522868899564217,1.618855070756708
-2.854922013657201,0.855924111871794,4.329570375550319
2.9668075853125058,0.13310660640398858,2.9323284472573268
-1.6588495322421521,2.4570690446350527,2.5646040509515524
-2.8749330578270604,-0.783762185093973,4.513331204560517
-2.0016146819743597,2.1918605211212348,3.0994399887153268
2.396480907860644,-1.723126411700884,3.361907008243188
-2.3547248359384336,1.8125646748891364,3.2652956848589727
-2.4879560330862494,1.6737956603140793,1.7276806263302702
2.678191280305017,-1.2669578081314061,4.147638624108316
2.932128164006109,0.5407566951738905,4.514784146458062
-1.8596106434368667,-2.341032910320971,0.263990188018457
-0.7461968062122254,2.8786122810624972,4.901862959368692
0.7320359081286059,-2.903190625926047,4.270130960560867
2.7415903668117165,1.1565111289118877,0.8780980264520921
2.296577264148526,1.9069000350195306,0.7962497274647706
-2.8559012962899555,-0.7811121750015868,1.8795274256196937
2.7294357554771977,1.234582567289433,1.1650888005797073
1.2018909699063172,-2.7101084861474276,1.085100240947086
2.9577895747170952,0.028868168244676463,3.827044017929114
0.2660677034164995,2.9596386904351575,1.7954779406498496
-0.3096635125656398,2.9429376268167955,0.0291085579807443
1.072445294284905,2.790787793017047,1.0273678266030846
-2.8218800141801146,-1.000998293548014,4.132724535294656
0.48094486032216766,-2.9505859096736944,1.4676668739783338
-2.8336641884671963,0.9315702522976638,0.5189089148014703
0.9858673310477796,-2.825412350976942,2.7069227503451367
1.0402632080817664,2.791489624301996,0.8281555920057726
1.9415554394637005,2.25956153801016,1.9446374818406276
-2.425926431016566,1.7527256601694658,0.04675734718085023
-2.621927055787596,1.363123482397685,0.23276628018395196
-2.1846732383784095,1.9901661836647535,2.0262513153471535
0.24229402635602826,2.984323086037259,1.7247861947108163
-0.4748958360370948,-2.925356333620533,4.8419374858419175
2.748292266891075,-1.1401259879207004,4.013535231372131
2.55482484174378,1.4931737173330433,1.2953014773904488
2.9296372626005303,-0.425590738886735,0.5157048577217843
1.1432186553348882,2.7220688619623385,2.5735857770837143
-2.636698178341064,1.3262742706243753,3.190211032169147
-1.9954769641709156,-2.2290105510040084,3.8490888778024757
2.2764252838604317,1.9490222115290012,1.6097355549890757
1.0337842790899123,2.808727220954384,3.2713352624878986
-0.08150696633583591,2.9790059844131505,3.124784013605588
2.6647787628344886,1.3086080722062616,3.0164476762178416
-2.6092609424744024,-1.4096264096901374,0.04882523928013416
1.7763160050508582,-2.363794397851993,2.0581365904828264
1.1168215408288191,-2.7568699268820556,0.7600109677935846
-2.137231218768765,2.0940468537595103,3.3226836457457103
2.911377509432476,-0.6439956607610285,1.6725854628446584
2.471516051042567,-1.6277314270747034,0.9824263446408898
2.9491308399854304,-0.5477444628790424,4.841038356552674
-2.2249788708691174,-1.9631553511293216,1.214829334528042
2.6753969954756154,1.3469997244057006,3.9735428446586445
-2.6492263416596646,-1.3155017357691903,3.7479373126272897
2.5928933975253425,1.4076924425903246,0.0560508879925431
-2.5331857874696793,-1.606141601197629,1.0911771990129955
-0.42810336463005927,-2.9392690114020796,4.685812466272638
-1.6683912809690418,2.463675442997807,0.8074519009930581
0.32766330769228225,-2.9720653285089003,0.7816223254665944
2.941243923146894,-0.4321023911021488,3.082637520089935
2.7973086250086525,1.0695659748173936,3.2394004880034455
2.9675055932227483,0.2420664519148512,4.383640550912242
-2.022416095989732,2.2098829132162967,4.440342192037059
-1.1837662849732176,2.7537292728077154,3.045595741647182
-2.9789659842438754,0.2059852893514581,0.36469286963372927
-2.2446997150197325,1.9545551128291097,4.806039675206158
-2.673433375100432,-1.3102312389548771,3.700136782233013
2.268643293750337,-1.9607422028801245,3.265988372210993
-2.970437065242235,-0.39239621491566434,2.408352407087046
1.0026462207738618,-2.8177718683859863,3.0589259225605403
1.2149657289510964,-2.696350392509189,1.3114414907982002
1.7253341831617917,-2.3969345358352188,1.0133977692173657
-2.3022655390120583,1.91451101454534,2.198716271718722
-1.4908018333372561,-2.568020942933805,1.0605339074064035
-2.861485606963359,-0.8826605432976755,0.5720655922247703
0.7808008170433066,-2.848775944146684,2.6882099696099475
-2.968672535539455,-0.3714219146579458,3.6202778529694912
2.0522944257864006,2.132399774826279,0.09107756373224807
1.8794097637514404,2.337058283168515,4.143977397248548
-0.018262901685533458,-2.99461702282416,1.2981843920196283
0.5256977536136027,-2.9507700998147905,2.535294355821836
-0.8126630560284672,2.884659948824187,0.5983023377685942
-2.15230678620685,2.0711235514742214,1.4370274433760462
0.8554205398726,-2.8501716866585136,2.012141598904458
2.7920874251774332,1.003050595710388,4.3805883211199514
1.5161372292245738,-2.55066755973536,2.1392101556842698
-0.893673088690515,2.8589789783353967,1.8908098930837303
-2.9554331240293132,0.22648654852042388,3.9453977088024548
2.9797105198742413,0.1942028805784655,4.681936550986924
2.3304119562280703,1.8512646642528912,4.28967420182018
1.1624190373392507,2.7300109907072017,2.861605366461931
2.440390731283578,1.7025764176643978,1.0764284003815716
2.2769583762847025,-1.8798407209480148,3.404245393276119
1.0401933281566562,2.810394234730722,1.1144661901056891
1.6970567366580538,-2.449650295527684,0.1542679647796119
-2.2191535105989213,1.9861341822423437,1.3499988767172455
2.5753267564932085,1.5339798697310407,4.68294416126324
-1.6488207676170166,-2.4781777122949835,1.634189518253542
-1.878316948078888,2.289581583234838,2.8019202290097693
2.1889267117779685,2.0496217249114514,4.268569759907327
-1.6933149772019722,-2.434568455841759,3.4356764459960343
-1.6802829097927943,-2.425188652011538,0.04229086220821188
1.508385465423104,-2.586863826733813,4.5501173071042835
2.9905344853132303,-0.12772686121564714,3.238575937004227
2.862510325798601,-0.776604872566701,1.904525395902843
-0.3804896710559691,2.9281316644677458,3.881375744210273
2.7465979553503974,-1.1099893887184518,1.260316230026779
-2.7657345490824996,1.0953837826433246,1.2090528425294822
2.724721685555097,-1.1711292406618123,0.3191552576164741
0.9565286591582581,-2.799436170262535,3.6686519644453117
2.2419198412669337,1.9308561029240359,2.114981088941528
-0.2070190147833131,-2.9442057798954857,4.727160561731891
-1.574445940810881,2.5084436668746806,2.449698864491785
2.5275476851352354,1.5502914092934719,0.958882935668483
-2.781538147081751,-1.0583534118603233,2.1476310787884096
2.490962366593116,-1.6476949124452187,3.026671990662255
2.8499988079575105,-0.8430074350683997,2.7998993406887687
-0.7114290240886962,-2.9124128358819736,2.3811291808269948
2.950746375744345,0.5233150586257004,2.3722112762983425
0.9170175997798955,-2.827094878692906,3.356404279998644
-0.0410218196051719,-2.9925540714417536,0.36476491593452065
-2.2779520780736715,1.9231406345361688,0.6932601611078504
-2.7708812971704275,-1.0573175653167495,3.055347118020019
-1.7204274599801466,-2.40404854905326,3.437054252857228
-0.9453462303223465,2.795181089287329,1.3913002193232427
2.9583182947844104,0.09009789991393312,0.14506398202351556
2.3245618847998655,-1.8542001929702758,1.8505882613209457
-0.39493764739177584,2.9242306041562354,1.403681153143825
1.6024225502481526,2.510096959864745,2.9160809087251405
-0.8273956104550342,-2.8322326874612536,3.143139602035453
2.925579719393412,-0.584687585650513,2.9379967288309943
0.703031562381838,2.899945942582012,3.441209300248323
-2.2706254609950767,-1.960594159059426,1.6535235102029888
-2.599790626535924,-1.415949938656362,1.2828707969160669
0.7845669480982135,2.877850798750165,0.8594241618641496
-1.840486567415469,-2.307258119464663,3.1143451739680788
1.6951144494012562,-2.448069899242259,1.0504586116558323
-0.26991418787183524,-2.940815229955554,3.9601666827852955
2.7503448001747257,-1.1051714226322167,3.496869822699553
-0.11111028521047205,2.9924930287032914,1.3680492603805976
2.8659901505348246,0.8294394129736257,1.25233200970648
-2.8285855797391863,0.8395775460984133,4.835167032663009
2.9590098699416725,-0.45895117972174904,1.6039989847898695
-1.2111409397799482,-2.7390247023749335,1.51026766147222
-2.251719658699249,1.9440459838446442,0.25312330449283105
2.722408435508896,1.2039687847653044,0.10286451542572239
-2.970757169541633,-0.0845840160472875,4.445474043874499
2.6835715068650194,1.2459425043007135,2.5094475184713922
-2.571015437491528,1.4912105501987174,0.6296633767215426
-0.7269546730826474,-2.886635888750453,0.2668057577067112
1.3846497317734485,-2.6396766627489874,3.610151906843776
1.518854201106007,2.5623431403550367,2.4285737308002893
-0.03988541322626799,-2.989437685790042,0.5751686905032871
-1.3632290286660584,2.6560060768450806,2.0996975080082225
-1.2081732369032776,-2.695700626668222,2.660908022065148
-2.4994738348377505,1.6552844715529997,0.9418945483068564
-0.4572141761042996,-2.95405512976035,0.3152560907152141
2.3412427998645815,1.8506216439698995,2.379587919110064
-1.2651283315849648,2.6749695231094055,2.1576249356036503
1.4857013471725495,-2.5549489512972943,0.6417308970151775
-2.0936533188006523,2.1058045128119662,4.8312603393081215
2.9776721426673753,-0.26160956323753726,3.5594006585416205
-2.462842531573461,-1.6833274767443032,4.471312217844627
-1.4262866090888977,2.6234392055108056,1.8039329900785905
1.1868504487745746,-2.7309982243998494,0.16770161030467412
-2.587789179992389,-1.4287446582421097,3.153492272811194
-2.381863441484832,1.7420335717102697,4.1281496902732915
1.1600991522504536,-2.7381544363332493,3.211115442956742
1.53747159099614,2.559181092635534,3.4626753399661796
2.9548742823582668,-0.3684955499971943,4.0100755611280645
0.37900192456098925,2.93162804616946,4.807145405910872
-2.9519611333126323,-0.4376870367178694,3.2739390528617376
-1.2020463968541255,2.7307405182974294,3.9234782741943026
-1.9198466883529117,-2.2677298509456483,0.10022066598764645
-2.1761046675436093,-2.053343446420598,3.6975089652909396
0.738645980628983,-2.8866517335170285,3.93571461366561
0.5366964774678193,-2.9189501524054307,4.249299580548528
-2.193596011966486,2.037833314243379,4.934225059937378
-2.2458086696584796,-1.9880270902750063,0.2457578464552418
2.9491243135232095,0.5053370604541163,1.354893075261277
-0.3324773491099695,-2.9634939142808396,4.764643610559803
2.6402761813739173,-1.413891973512727,0.8162985184605137
0.09822225206994294,-2.983380294505535,4.476248444325765
-2.8180733485453198,-0.8976363482850225,4.68968262559077
1.2819856862621841,-2.6694774955988354,4.950039541187643
2.6933336642577155,-1.205300652293669,4.92265004834013
2.9528777144483733,0.12571786719845973,4.2679666024651155
2.0550789996515775,-2.1211084377683087,3.1244898731069064
1.4682461730057488,2.6071488584561893,0.800418594173129
-1.924235534917837,2.267733307219557,2.1023509023736
0.4657857537103328,2.95221086590403,0.04652379695943287
-2.290836618302668,1.8867451786926726,3.0614219586651794
1.6337410937719417,-2.4794275759842512,3.0756760810923494
1.3492087018492727,-2.6701315735871463,2.7859247718516618
-2.613057277243219,1.388215561200111,3.0098114983969055
2.584377596062365,1.521611165021484,2.6540708271099316
-2.955762951272169,-0.47969123262257823,4.199344965853518
0.632312702797539,2.9099865230357187,0.9850860404068934
-0.9629537388049995,-2.8007511735473973,0.5574845698541647
2.8203085756561057,0.908805511067032,0.9338757113762353
2.7669356850904587,1.0439335781701342,4.601358800013957
1.9211763140328055,2.300230250113467,0.1214360125045788
2.79649025738085,1.0221398391486656,1.0714964369553315
2.7900349538736644,0.9984301652454096,2.8409502814794063
-0.7467374606571039,-2.8747326085620424,4.681386329597441
-0.18775686073773928,-2.991463718302209,4.898583422230618
2.9910769088617206,-0.2186098005321405,3.5207537103628694
2.136357804053294,-2.050890437666642,2.0457619790704857
0.03699442593931834,2.9689658139859,1.320697455008753
0.9735645084147062,-2.7858200968348874,1.8688756096286507
0.2896907460600446,2.9791321079083644,4.699551038648805
-2.959399052348475,-0.4305915666429381,0.5780458501207086
-2.803421275743547,-0.927407235682602,0.3690315748441575
-2.9979769273660235,-0.10962412083780414,2.939544005859087
-2.49131260162329,1.629749601665676,1.3585717650922642
-2.9729523500892525,0.26104023213010147,2.3366153826483282
1.7737687917049076,-2.400741309461989,2.8240886009998034
-1.0292582892699436,2.7708680071740237,1.2089437937964047
2.584563145912023,1.445554807380255,1.4978206108856278
2.748945119734997,1.1631322043845178,3.222018534942967
0.19705103680094652,-2.9578296082313407,2.326241832856249
-2.908747516789641,-0.6393815728133954,4.515742077361969
-1.7166316895646403,-2.4079023331496314,3.042923431461298
2.6295439417280018,1.4193976234813666,0.30305779696451596
1.9457810031308609,2.2716957830426168,1.6901244335598538
1.1520567427124255,2.7307357272569126,2.253119444487563
-1.3952465640973983,2.6299271845208576,2.775553285332886
2.945662173415955,0.4755667477828503,1.781794671118755
-1.4160876675056047,-2.6234781317201197,0.32455068157600686
-1.209886029472598,-2.715050180585367,0.7826524841610227
-2.472573732576805,1.6182554793175146,4.711982331982992
-0.05071491919575295,-2.9513318958808106,0.9350460546707651
2.971122336003033,0.24908558492979724,0.7062344685626382
-2.7625099943666696,-1.1294621649819647,0.8837455217394358
1.185151227579433,-2.7334272106737383,2.5030177365186628
1.4406916184851704,2.591630677416969,1.015211859421747
-2.687854126646015,-1.2752959804441593,0.39773340663893597
0.0346597330839741,2.9555261839623985,2.5713519019312714
1.6915732819312963,-2.4530073061200577,3.5784807063721313
-0.42997417098575236,2.9185887270629167,4.018275061647872
2.823376862086573,0.9404418410362986,3.4073533671360625
-0.28340629988543414,-2.9657534424842207,1.915988342469694
-2.436496940687475,1.7177447347322614,0.013735690983619486
-2.7678080904444187,-1.1342488987819703,4.922551530782095
-2.6921499769173387,-1.2953394076726956,1.4990595310315002
-2.9600988433166395,-0.056584590165717076,4.871914072856812
-2.8491928035730947,0.8297174418898695,0.7542668979351008
2.97024105772645,-0.3480886293551082,3.747221493101716
0.4703568084629557,2.9376405775076644,2.747975514013236
1.7552619789813906,2.3767505818780177,1.7406075693750966
-0.9837078975015715,2.8224523350008526,4.184825603562859
-2.1309283327970863,2.0961233589212935,3.6237555639024386
-1.1291489980893954,-2.7331467785809207,0.7917286442523586
2.598775040486168,1.4653832564957179,2.86644638881777
0.9021093326314494,2.8430427522879063,0.9607950223325407
-2.1527786617977704,-2.0339518499204914,3.796227828371051
1.1871770496712264,-2.754419109787956,0.6461172935427223
0.6452237574105738,-2.8874826002839793,4.011586732631342
0.7734690902568807,-2.848891652425498,2.163446855127975
-1.5570638476763936,-2.560896660418426,2.178729317586085
-2.947373084918131,-0.4868778944473014,0.2527563993649695
-1.2631600929196627,2.6863076768700656,3.1784010516157952
-2.076582636456687,-2.0995457221464773,1.1480594590436821
-2.1003643111022305,-2.090790087803699,0.120049804431413
-0.13670370493891992,2.9966150927220907,1.4114531060805302
2.9836513046087516,0.16832353843852282,1.2602203063232087
0.8924189081219052,-2.812879725055757,1.8545435417311307
2.547167570698739,-1.5095060769304436,4.654118052624405
1.820887889600025,2.342173966199444,3.0551927569371595
-1.1866950088542054,-2.744920029043613,4.8749350315917725
-2.325344094114059,-1.8867596237441857,2.174107591720656
