278.95081439587,236.23379134037177,385.0666637340878
-32.07505318061259,455.8312032990841,-48.46518914363267
-180.1740646036753,-144.79952333046361,-700.9166237580649
-209.41363588191027,-72.83538589040374,77.96144283798944
-470.3016213845628,-103.64464526168472,157.62363428711143
98.46186418127296,40.668394526382016,-889.2680927045135
61.021259582313824,-207.58077980414166,-182.44595566785645
171.766156377591,-12.388323463945076,-602.9089937089933
-126.35426452799685,-141.23031254388147,-687.2760768672974
221.1003506686212,-87.59960360983195,120.10263793320196
332.3401406565544,7.762789842138619,292.7317078476078
274.63739521928665,291.6584136278675,-248.74036214254352
242.94878287127437,187.6581477601932,-433.8804764938985
-179.15479714690088,174.48576839858504,-103.16429442048367
-33.85391970460901,114.40817590677517,532.8511771586619
83.21325423887154,191.38389353879373,-127.68444005407213
-163.32616314954504,-115.88790787920074,557.7850833554531
157.83877303426652,-163.85831528082383,199.01267717941988
209.15042756294494,-111.66109087288649,-424.34980464892055
263.37474370957926,98.55925528500103,-484.5216456771894
-15.773008531975902,195.54576336347168,556.0585204467471
-33.943391742120475,-249.00732911611945,163.1970910396518
-156.25292183916747,53.7021107633995,-174.82619617847143
101.7787642055237,-210.5450176303279,-370.62249276915026
-220.23085894221524,-83.31213586629245,444.7819291026557
-34.56691963434723,-345.33014866656845,309.9236824155694
-123.27347260442356,368.2686808770612,283.89058855686284
-387.1679993949772,-85.96587274643784,-397.21430664708885
230.1281018850001,202.99260347040845,322.2005975063865
-148.69951123065889,262.78038117457896,-593.6067516894524
42.72747538607427,63.58073510916451,705.4457974666178
56.06991430710283,-137.24557199193214,-113.60253827994376
454.6956093153085,103.41903730171067,645.6231654747891
34.35346291182001,-68.34141938221445,-620.1374748351839
-215.30701967867282,212.85781405186,-117.18984687089876
50.43607191180438,177.36368247774004,699.2928879795501
-103.83081160375569,183.4885243010319,97.60335119305873
244.53176741986752,-368.6661019491615,135.25884968439365
631.4967882371587,-107.004528212267,315.93326856450096
-163.81151126169522,-113.88162291550555,407.4224061993255
-20.047821193577104,-51.19770207967629,-524.1500591345088
-92.7338911531401,-97.99769220318136,364.0624835121021
104.62045845827038,9.825742091079984,-744.3986415908857
362.9682442599686,-114.37939060284488,397.3760916855691
-258.7280096207137,-157.9105911683611,-273.3452340951694
461.0640545809991,226.12510438165208,241.1407874276126
99.66666807069734,-462.9063101047079,-788.242771695681
-10.00574680205876,188.2244906162259,532.7006296531306
-355.3184555787784,78.24111793958288,-364.04429807425436
-239.19565446427043,6.488247928133236,548.2772559295089
82.44171788165663,141.32736440940565,820.0668943157949
-107.10131339133756,244.94461938622294,-505.3696285047506
-3.306979385797388,208.12343894191812,-646.674126896777
174.6556352097599,321.88849336996,485.7934402942866
-200.78858021939365,137.82864073886745,-110.84308642298575
14.47083156136605,-46.42086153303424,573.2037262995202
-167.52518849329454,-287.208314175852,-624.9624714692986
-85.94892537879586,34.18242593708165,576.3850595261133
154.64734563363808,-348.03662294341257,-274.52012469823256
172.0069200475946,222.92917557014565,135.91386332275326
169.11520919627483,-150.70289091739065,691.411865536425
272.40811756037675,338.7076948438829,766.2874126142699
89.36469727831495,-27.81155199231346,571.8997339002606
164.99287014281882,159.20865482321304,-254.27296074824616
-360.99362189401154,-258.29301059687623,-52.212854760374476
-207.17496037312335,47.860952539508595,236.3332904678481
148.80037244669143,157.17891527739656,-169.9299215257912
-270.14380269599417,516.1096153265096,-310.2651196288737
-9.629011866081099,91.15564636507929,857.0071167144094
148.51825660538373,-175.28562458344575,199.44882903157745
-38.16501355866496,-168.32246376604738,419.5751065986592
16.21585635125448,-98.31622885130689,-195.41185257291767
332.46144126433364,-226.10865540478778,-155.4402039637478
-125.5948309134589,205.2590198847895,-124.19310909464947
168.49605468932745,-78.75782196291254,343.97650628434013
-476.634708417525,112.88495538773036,-199.63034464170718
-94.96912249007802,-65.83741849064883,221.2822261292238
265.6225184899474,-156.34843080013192,-301.9294866094835
-189.84308504765704,96.44454381763046,364.5985124835612
36.94874570326287,-136.9156540905648,261.41821734503765
71.95958491425633,42.47414544550661,-880.0251948962773
-276.82371890262885,161.23361789901028,-781.9969977834879
-96.11126372198129,-116.94600423857511,-356.0881564198911
313.48491381121886,179.10617794776144,133.33683339069347
-0.42642459808228544,-12.934494161513,495.0983125556321
108.42054927705654,-53.82254136872453,721.2217796388175
66.60939653006501,-48.059129610733606,1153.1951679231076
30.162184368862878,-142.22772419254673,109.2743772516972
22.585934065062247,-262.76186688334906,-656.0389228944447
43.34527292414031,127.08992545698936,143.02715251738428
-150.3135366028865,7.818306590107609,-121.95309437265807
245.46198216456827,402.757146790943,32.98950801038282
74.44521851320351,-163.7709508432579,135.6043909750787
-173.8896235646736,-66.96347215865138,48.103066740982236
18.881569187581285,-213.86660810618596,-1473.1811822707216
-128.40854432008635,-57.4216157393845,-351.737011456518
272.473982146257,237.83441799917168,8.997289351496768
-77.5258304556348,-84.13164980765102,-1073.4277491026426
47.21540195812402,-180.52829318539153,-478.4560786546082
-298.6376320807241,31.442086466305035,1148.4534778314614
6.308592319312669,266.9679862705956,-459.6385447589605
190.10070453139207,-185.44442686003364,746.1624751350226
271.19488353652457,368.73305057259444,-789.0924617784706
148.08133860183037,559.6572967783537,-614.9034111261554
-66.91586248085545,-192.4643663258289,1054.3463149393308
-142.53741744205786,-22.109908573848656,-382.9962328334062
138.35465082582184,-402.52363574866365,21.125383926763977
78.20172729743254,59.75490243728717,-95.58181075661027
100.76240409035763,73.11875638460509,1074.1013230648032
-167.3600049195037,180.58443462738455,-99.26563555508429
98.34616432176972,205.91331295385214,1069.2219950999868
311.46066009223574,231.20152250889993,-205.97744845762304
-145.2360362872594,82.74466496507912,373.2216151658672
-211.80982918618773,-21.528488774005588,-892.1034953323652
55.261304200332816,-518.3023375575596,-226.1124635881682
66.78236178191185,-18.2707672384855,290.9367190795736
231.07962380516702,117.17389738418449,-523.3867126248941
123.5253435542925,-108.61411793410372,596.6356826705013
-178.48861944952,-194.55821043224972,-59.983014901124065
73.51942914800394,-213.46929939704057,495.2628728307396
-196.93359888927114,132.78684450727812,-1217.4811396024552
-243.20398833455133,106.384471198784,26.497787546863382
-89.49610855816576,-84.19185399721086,-139.20679221560368
-134.64392924139713,-2.934671043206489,415.0661238027632
206.9731016871807,-218.04280791498644,-680.3437864138833
94.02342084857919,-103.736785359736,262.4801468255959
-223.16296391868792,-9.365607522649793,-848.0979048174289
138.45437076844013,-77.91321832422945,97.42124950748637
-8.013797155370463,96.1362443595157,-292.702265927248
125.41693782790195,266.48155509480154,-245.55247851456966
-122.97017235836019,-234.50858892548047,-68.2774677041951
-115.30484218864174,252.63653452338085,403.47812806383604
-345.3219776417414,-263.0925565974661,-58.379551011024354
-310.22775799725224,62.958313213823615,-370.693714482284
-227.82582568636562,204.46982887803924,-912.3130007672564
-57.484170183892125,155.4365382748112,635.5408049779122
-69.94288719637767,-78.94289841631985,-97.43713879857415
-156.99309449746312,-183.20551165605733,994.8324717766802
-187.13757366963074,18.70615063219757,998.5795647341461
-75.61297454866789,-237.29726980755817,-196.88641882812135
256.58234249047183,-338.09768967422997,38.12643411761447
34.02200711512928,24.32977809405563,71.26092049197582
242.30941463360804,-14.4827619790596,-676.0282456141989
20.538458266066232,-200.61425302505626,-469.6022819021849
-64.94973438136955,-34.12694193296072,312.6836983136394
85.94739175901081,-134.36716736306153,497.88662247641605
-162.90568111701717,266.8853782344079,479.8446127009954
-152.58533431208585,-76.33176853167667,-339.3967442939052
154.5385174831278,395.65222080352066,448.4668979409833
225.5843397507028,-192.72394916831496,-620.9608785998962
-92.06786348351295,178.70623899777863,391.3445196806381
-150.96531496589094,-228.32397676039798,327.96791559785714
210.16500659708845,24.72793265099103,-236.28069165166212
168.9571069624263,-323.4670332313266,-1153.6327414821985
-232.51098631318303,-136.7873361069701,528.0204728884322
-254.71956833947505,-126.68678748706597,756.2542695708598
-240.3459587096458,-274.30570504322606,-168.78996672192318
-115.68798356780077,-138.980672349751,1023.4527600702986
270.1407058050142,-187.84770384263138,50.42765435543887
-261.72367395978335,100.15608703428369,333.03436056111445
-149.25569993401544,-252.4197829608209,67.53385796182559
-197.46273538518403,-58.002995980968386,-249.38235315577776
-242.6722886752084,-2.4833939754486694,-528.0577881867554
-114.29696903238965,116.95551556310535,-108.13894712757269
-18.81777287420005,119.06410494444034,239.15057012631527
116.0706179290817,-317.9508909542094,59.99653463456015
43.47051628376104,-391.5476029231394,917.4913515515883
-138.21901818948737,-198.28788124877624,1538.3795099911306
59.930713661662004,-106.81764775073295,431.29428962487145
37.12193050947142,-299.30243068058917,399.60299901668725
-4.523840434137082,-209.76020602878793,-7.435201104588803
161.9117486616144,-91.19401959717275,-389.4592866809081
123.0241243277111,-153.0265204939336,57.75790623875706
-151.52078089459218,-14.526118366023574,277.4036586387415
34.79230749215678,131.7698505670898,137.69935607075976
-238.73269257960806,-21.39690967793391,695.5636851879027
209.13469662342493,-110.3896591728027,180.14715379352697
-171.8549610489974,6.160778885176483,541.6732882405
50.534175625734036,-287.76376807470115,614.2742173042666
25.0828390500143,-118.59502859863984,-375.6638266837104
270.18530515577487,53.42208027192553,-524.5227376658
148.78979736972744,-37.16868959269382,-168.1901252961489
-80.80758430533105,93.18989025826241,-487.87392830930065
601.3159417649988,91.81471238149656,-743.4022729700234
31.362249969685195,-284.89626842063427,-401.72086480062444
135.21630097694893,-31.146199858607893,156.15086825718083
30.113254642734372,-106.63231356051406,594.7765137158588
42.79151945465673,-22.703622693543124,109.61344806466033
-11.689930331951256,120.70006273814823,99.9371621297813
70.3906739968425,47.7749726488999,-273.8950039270005
-238.23518634229504,2.0794835155355367,-25.1878809789826
-35.315906323763755,-229.39794429820276,549.0058172827584
149.95677339525474,-67.9624576980488,-375.7938324770501
203.05720000275178,-121.49061458113866,170.66604277814625
162.79292060471798,592.5912067649773,-10.294724226800884
-210.11715227114712,-176.33016435314715,-27.870274590847817
-66.40315802923266,123.25541448141549,-752.2639082151067
296.14190422016384,-464.65664352249433,1031.97358875842
65.80219406581558,-18.532948329770484,-172.50853557137364
-39.656247188633955,1.817866214569188,-935.6840948099461
265.85912963275416,120.8025260554543,-183.2628143049059
-202.22851230521223,143.07012392755712,-545.3809049498313
151.0779880057179,-166.66105849730423,-738.2833536988297
-138.0682903138136,-119.00622587529821,-395.60147413974835
-188.81127575603506,289.5507450771973,-242.79390842983787
44.904211924945095,-128.93585721834307,-152.41082089103915
-62.07400528211304,3.865451284155086,91.29510270233021
-248.04747730233424,13.081255674350839,124.0488754493279
-259.09110318363383,-42.682149215897844,509.72561051318354
492.8190152434321,-0.2852620402464775,285.8122445165996
-41.028599856407375,-497.7448252584419,932.7902254753443
-163.8962459189411,242.95092059949798,-112.50030394195377
282.64328436506224,-218.64930798974504,-343.7662585340239
-267.57620761170153,-219.46337309439662,1128.0599513603163
248.56647091947144,-244.1849052918797,955.4713678444508
120.996953065508,-132.980782121423,537.4797160739074
22.16514054831107,-217.25859120246423,534.2252446390364
100.11936121964978,141.07761130449924,-656.2325671878319
-79.46469108100992,-292.1733179866055,284.13503936319626
-57.45981840184723,-25.099536488526898,413.9557782496456
157.76892262191708,75.85180376101324,427.9544130193457
-147.79738289468312,-292.2043349558503,512.0496891414185
-38.97859804443232,54.636639066274505,-697.1961034853151
-37.92361717232771,108.26814576955725,251.85558993308982
49.809948144056634,32.694027039644766,-92.23179111089108
47.94200203263418,-111.2024974275356,214.42720651164254
-55.25068542477551,13.495808647682297,-456.4484672318375
-82.89964390357855,302.0481141888452,592.4622328071143
84.27286424321422,414.8583031272643,1339.7758679153908
316.0398014328021,184.45160700324556,-435.38941038251164
166.6426069103616,40.965041301956475,-792.6662785891099
231.00355319333627,342.04371813311576,136.6978452812594
95.34926088755732,68.71054350607757,442.6735333427514
-126.82596720487949,131.25088662507,-146.48598348465194
-588.3388799921217,-281.48624736629046,825.0690707803855
-107.736864640425,160.8269340067998,-327.7938068730022
-98.56579620494365,204.6090460480506,253.06533201356953
154.90638929672787,53.59628621588871,215.71397526455104
180.73586085276418,187.17448193661644,-53.150620710153554
34.47552978751153,-330.3955827143799,332.4877558489136
-175.46090281750773,265.34067556878335,-205.77504900006667
284.0709059962646,476.3484997573354,559.5770180200593
77.74061447870616,-156.35268305932934,-723.5584438192014
224.48529853408502,-232.17213121489982,-856.0438633584452
82.31841749646831,204.66686024219797,281.32553683955473
-39.998036288219396,-146.9631401699424,-1062.450476423724
-7.353165359308281,209.90331284554017,291.1069155280929
-57.37311823741277,-90.55003081985849,234.6927851024123
-41.00196591671092,-67.01190664430298,748.8432614890247
51.45517256527072,23.127045054571816,75.70913473178665
-180.49101497619012,-182.24612466920885,11.951825443610362
-237.45173841779516,69.19149057883952,-390.8925440905043
261.09126545788143,-261.3266739316825,284.0139204304212
-179.82559778945185,387.68985716643095,149.92495933267193
119.39733129501755,122.35928516361815,933.6941242096932
377.8724604746198,205.32169913555646,-68.81810807455079
-606.190195234594,48.6580165937385,-468.61327302781865
-98.6088405501857,135.45269762690808,256.0260889536619
-132.56017503305895,144.6414197561658,-154.08343812819544
44.655606171968195,-210.6328396299633,177.8991231246401
-369.70906231806765,-94.92066858984259,141.49252831111056
-212.9604576489909,162.74072290495906,-295.79683886225195
435.35927940085656,-302.2794441813502,-83.64359850310615
-142.23619987161103,270.4917572010283,-129.34134354894564
-92.07721423898192,587.3090014691754,-379.0306003590418
171.77464955179937,-82.33239965101806,-196.6683828177984
-201.81642734335475,119.2733302844083,-208.72410987577754
-378.09871694359924,-147.94189935861428,-565.2791659567703
216.02634311120866,159.32794772481427,-244.40774703712773
-101.171530003341,-122.28295376861458,-44.532821686435554
-303.128440460271,-49.66358977238365,-229.3218666548516
300.9470303160698,114.96892799223066,459.2383932398962
-145.6940848581238,267.43633845443634,1009.9008337286176
-195.18466558830102,48.650547910829154,-955.4095586619161
-330.56460217003655,-218.97164282135134,-967.8541892583715
-421.6796795751574,54.48186773838584,-412.5439426815993
252.04945235545782,-285.79501590206576,-30.190967055632047
-97.38862110392927,57.87566819733967,-345.2772918831924
158.1185063671471,65.76178484579167,-632.037958615877
-52.46422469448236,-233.05956356649648,-627.4126178796164
126.03259493770338,226.50606421495297,-424.4000476876326
233.9166421554968,119.04360638830683,231.84372112338494
-118.0216444904344,-80.25449212968405,-418.92327314976416
309.39244664968874,267.85449664472713,1176.459810353474
5.563590268838475,67.60337261812941,862.751046082704
467.5929931183636,-64.25984434905281,-165.2523695492489
-1.3280315207231739,-102.28668986097236,147.33050274098736
-120.76354935598354,129.4979876709599,678.395223570288
152.21081066167494,-233.15703222752995,242.22708577642908
66.59160750970827,-18.875102353442863,-82.26395553318687
139.95573461962732,-221.7934303304705,335.9159789116602
173.2425253837671,-76.79377803662662,-406.72231866923397
-197.91727259389677,-176.06086054347145,728.1909015580843
42.4699026474505,89.01696332671467,113.82485716530464
-195.88006297886,-5.984075299616963,-99.48350322115242
200.65452109826137,310.5446866431508,-159.01993435231975
-17.16846891616203,190.47217064118922,-242.65268778812987
0.49549577014308016,-54.542619925820915,-122.04798380127248
-130.77736736191622,-219.0836908338193,260.85365984041096
362.3055397240314,416.0040575988571,710.2482995192252
-65.7920987437747,1.0839943844063886,-102.8978238778031
398.02283782966686,267.4125766558906,428.9147384136093
-37.65703015508034,233.28919665481828,366.6627881880781
94.81004192790387,-193.33433605754192,42.40936229620807
-350.85603904784494,-290.7909696820554,-39.59774647078349
-113.53508014108084,-271.404282675059,-383.53916871252477
-31.971808683060615,364.598554639302,135.96782390994926
85.56692740798121,304.16058937570983,-115.77265368530065
-56.5861976331697,-235.8309299334894,-827.3957040008861
-264.48878774737096,-64.34565060293372,66.76394059952233
182.23496429313727,-222.69983849879554,238.61995434841964
193.64617255673588,257.9833872819249,655.5000130369946
211.3805606127054,-46.13577941821163,453.8670688397031
-49.54643200769422,-337.7887806587328,-652.7986750829319
13.443803086806632,25.871827779938283,955.8281033559261
207.22269861633876,-380.68896348157733,204.78368767441847
-62.18311004569882,148.2245819189942,274.8756554327202
-270.4905314252945,68.48380731934351,647.1316646873132
-281.6482875397476,-193.1914794825985,-273.85022965264835
55.01276773938206,187.35865316552363,125.1055155183821
-140.12151607653198,247.75919743331053,-139.80164812006763
188.20678722944564,-309.55460587246495,189.02059692106988
88.40049616298265,-60.45601304962,-1017.1046499058899
-103.6242386619753,-340.9244375084913,-82.67931184102551
-413.1494970189904,-101.20246636000707,223.20190671354646
80.9775815164986,-329.8003634559123,-372.176152844876
133.9120113672746,101.55676461340084,-122.07286302154502
-172.12905147097683,168.12186322727385,-393.96122621519544
193.11779180128025,-31.53305968392064,764.6732140685992
9.553309430232442,-161.07767516466484,-392.9743909389177
57.48002954191218,155.0601538697946,681.7852855739803
-140.87477733487376,97.70249681114336,-42.967984536604206
68.33026924453047,-62.75394214706197,524.9849856874548
-94.7218991962335,279.1565990002662,133.19200734676028
-277.046874657037,-17.921770637001885,-71.9280840066045
-632.2525703406965,242.69433288148088,89.56561975668863
-87.33054078498647,239.60434680962925,-348.5165921657314
-38.579532376573994,202.18656243216589,-253.38200226349892
53.95874005399688,-32.00410729387433,-609.3276332383023
252.42356221956035,38.56123486906825,-723.2785725327573
-90.9641467668682,94.3464743765958,360.50638055369336
80.74762117006873,139.6757342652819,80.96040455235571
321.2978799570381,-193.2762341521181,387.6867477675561
-169.37697696510259,156.37789157588674,-60.74776690517607
-39.980317720719725,-46.90071595547851,-433.02760737860655
461.62156175867307,159.9159168252849,151.28584422808254
84.23899566302022,-348.4742009700431,-255.8715971045134
-86.89863033904375,97.39444424283413,-279.3403727171638
349.67125954726697,-133.2424580418507,-230.75000320112434
-343.6019041458725,-121.67349575218785,-252.25601378001804
-9.197725976075809,111.19582065926869,67.92722022398107
167.02268669152176,-196.85032911412708,140.35766924121677
258.691788152855,193.28152218607556,543.5687257171551
-194.2944226805273,9.053465637372279,-274.56636843972564
38.440015384277,-428.18241929179476,-577.1670494416641
-11.886743918627213,0.5451263665047428,-567.4500494328585
471.8671099191951,-56.17548170733646,598.3619974533412
-3.5136463558563062,-238.67736620389923,-158.1266862133344
124.28149330888319,13.241986423837862,310.3739221232726
23.883826563412512,-83.75081542898018,979.6305138855953
-546.5991773098353,-100.66641587287958,-345.0941011134454
87.34624471215301,-304.85589789409227,-44.925306817393626
-10.942077811902777,249.26894520039085,299.20601471388716
-350.94484839951036,291.3781355449046,-1.9212510604846271
-140.0892155826961,-250.59744605083742,658.8493356242416
93.83608245881389,483.9725141259335,471.58306723410783
-513.6082176565568,-66.29397717892579,-493.5169702231245
289.28105090950595,138.6293283635834,-635.4733630542087
-20.151760464234204,138.38512865053096,-49.923633379944434
-314.7082160430187,103.4878606918318,-125.37871266039467
-200.31050334247888,-64.26106582921972,900.405017284836
57.087851293704496,140.32498499421973,175.37528928640415
-156.30693647079488,62.444754055106614,180.61939737298104
-35.841885070762544,-310.17643816245635,953.4633491180107
-6.256001108226925,238.378600988598,-1086.5445955258824
-345.6338297180875,255.10433605796635,-314.5609774986995
51.8313188649746,-162.10375905425093,-70.69807063379322
-220.0549416298643,-178.43204667469925,-193.68196276144275
-92.48388286650497,-558.0219782986065,982.9215688885383
440.58000025048915,298.30869851539813,497.05970295131755
-50.584168152691845,-130.30584500017122,-370.55900054687714
103.33304421275203,75.46097057764473,62.21515310249534
310.4840985378365,-225.3191755440035,1155.0570790034785
114.1311060530064,232.18386178239444,-84.51224200604524
140.60912859843123,179.50585851891674,-194.993406490756
176.85692199649733,-73.22127340194797,-90.82059782206328
-25.420638012843543,64.89938579722539,14.827196927890485
346.9546263978657,230.85176036895186,324.9527812060179
175.03527744204004,-80.9396587292277,-804.7116544094584
20.469832488395156,21.70239960502189,-54.09737712021311
113.17739715646987,-283.1296341955297,484.00121775926993
-12.912519820757623,-197.67683851985893,-74.73301191824079
291.37304393302117,139.27764697782206,-1058.7690738775536
-195.15826599375018,164.22947172909227,-6.004380881996011
-516.4203590144249,-147.24909064899643,183.28398803181938
35.504413379845715,28.503580526314003,790.3543978482614
-42.39852621039296,-227.2436390921385,584.3178454991292
99.76742361725867,-82.95988385706907,-95.17791114114654
64.91280779405936,-97.88804812842963,6.9775238144564415
-123.25715762658483,-75.15320211194036,-397.534121075207
182.49565384251122,145.2059966425609,1170.3135921192882
103.7906308426053,287.0337906742505,-1051.3957794867777
-399.7813730030271,-158.00679527228127,-442.9753336662065
-157.8862664807881,-208.77284512189703,153.89192185005942
85.8068098226475,-153.32589307221153,-989.6706996999891
215.82298587133423,-301.1066479710543,1241.7380451557856
-121.20336270782532,-357.45908964661675,-280.09599970512437
-165.23184289047393,91.09101791508454,-43.87666919896275
49.597145527552016,-124.55505526336086,265.3216887450017
103.64808520223647,-105.21413926233517,-213.93585911898248
100.48502415277396,-53.95793572629154,-882.4763704117016
42.42179131048365,-19.810176904538768,-334.1401698835075
205.63178751718095,-21.173442133943837,352.1327584661056
-305.0137171321503,113.97706074351821,-28.962498164570032
-8.823686702012637,173.64852507427133,-873.369096062004
185.71602238659406,47.34570648409613,1412.569664588042
59.72680400724691,249.26451825196634,-625.7410347611213
-218.39858391098636,122.0276926479723,392.1198821332845
40.18791980045312,-69.31540032686938,-202.63737381206164
-382.42692787596036,377.7454920215235,-618.6669551978302
110.58659584288633,-464.6946573100345,724.4701008137348
119.29130244261907,236.55934440096428,-388.24546152312166
-324.56132660265735,-182.46847458980704,563.0346169533104
232.51856234243257,464.1157244466358,830.7917122757416
-60.94469693821875,82.7666602757863,-125.3033854516174
-243.39524935461102,-173.2471076485582,-916.2288663890364
-116.21607786499123,-51.639995037670396,-1233.1844561414368
-112.28897146895103,324.1226676065582,-87.64902689540783
63.62194888653478,-153.02124699676196,-389.87512216067853
20.28682501100449,-96.72842900387703,554.9239097753559
207.97052677289344,-47.215334970666476,-1023.7530180638125
10.360896434009433,-102.20551618307749,-536.323953242252
269.1215551242973,-144.4778578974542,-238.43950442878452
162.3148386994425,241.44169936185395,-177.5124428408615
-71.6353179683741,-69.87849926925473,-145.29525914284335
-276.0595222826679,103.09383847204458,178.30222810526584
-248.30152479071063,137.45963709377878,-779.9624738890769
-380.1245530465902,-127.38623170537416,-778.0976579627849
-120.61617504991324,-112.75022108106323,-406.22735727413163
307.6408113606203,-161.1077764186706,-220.16613175368195
454.89299101798554,148.38871482821733,205.52780620972948
-248.6067377394877,-116.12803769639058,270.60191127225187
118.53761194557792,79.6523545602521,425.1080813936529
242.7335089620416,311.557022788127,872.847171520157
149.15498872059476,-55.38450046511171,-613.6389808620581
-195.21031613664945,239.62347192742573,-97.37519282832788
-21.38837555822442,151.988576166721,-311.5619411159287
33.78009245077542,-203.38230970751718,716.7761075843317
188.97087463821273,209.5981537022928,-599.5176668435516
11.362565168085908,193.0054022889645,-400.98984561541454
-79.74380438618786,31.756040448817124,132.77257914490366
12.877469921186204,49.688627489070406,-206.55447886675728
30.048778237485617,25.719973695540926,-226.6388801863673
70.53299680479267,-83.67872269794448,-198.19076016994924
-29.007723258056583,60.501110437406844,-143.7000784874267
-337.2358135892122,136.76959263836858,57.60326866414268
-74.0661278552866,305.673696106949,868.9160272499522
-235.63252423265678,4.356258848418734,467.9274633459576
-256.3650164058863,64.26050250670629,648.3947358853528
256.25079487706404,114.96355268383498,-540.0927857451946
15.704891784317521,-76.41772680450065,-455.2422255488517
144.27628439218884,-257.64903003220803,-788.9685125393236
-138.8829337347903,-232.76195942684586,295.5826555804871
104.9090305774865,191.45227354036106,440.934803525487
9.662273434054617,426.10759698687934,-466.7868903413527
156.06965721660458,342.05153620208364,-720.8557815333241
-48.98562405910419,-95.38253381134834,-35.407798514624965
267.4686742840687,62.9299064250836,420.54321389592144
-34.28077055709181,-124.52014311085983,-886.9718485314039
169.2476222691279,388.69409509428556,-349.8362865309366
201.86523748362663,-315.1798892620129,684.7647529562882
-124.83842384427813,281.6304734527618,-343.6980239323115
10.637483409220229,97.83738957492744,-1337.0667681905948
-373.8836687288429,88.36983862218266,399.7916747339397
116.87438205025953,130.40066128894347,1211.5084419728926
-20.366841403575485,389.560396756449,552.6736424587392
-33.1775134270151,166.75093606580705,279.63012541989974
456.76278469919345,-185.6603374029946,75.77706785886936
25.701747355014586,-153.2150970452835,-92.83025021541869
67.00055569237371,57.74106692719052,-940.9022227896942
-75.19052238405716,-367.5774832253605,444.40785992151064
-380.210915081567,202.73913150528182,213.57186085852706
285.5801779607586,-1.9569508954383747,778.6042983826334
9.881526112349343,126.79452731539786,223.57958538680467
371.7378064243563,-263.6794217136886,662.0638808167847
304.716917923406,101.3931239860372,-308.9050429975787
74.81351453834505,-32.083110566651015,-141.41397479784388
12.407224701472916,43.40402872553194,-539.4381633052085
-80.75139524003578,-12.9818803585592,-236.41845007045902
203.948382181314,-262.47536752192934,-89.19528236706607
-78.72229776283771,314.01506060780986,354.92671587554526
-129.04135006076004,178.70943195834636,-959.5636657746721
-121.54248082879423,-73.989479613819,-306.2470804635038
-279.3662602599735,70.52024307521258,-279.0094167302442
28.094271237177075,109.64246666684696,956.3713199103852
200.89290936893912,204.28393109079818,-117.7142123643781
279.4409820333279,-179.5474630266058,170.5347248531314
-56.73576490274827,516.3331471671198,-58.347867403754584
-94.41105258459332,-107.4012250827438,730.7529422559481
331.7593900611675,144.28305794975984,13.755016219302819
-19.991262286660398,233.2733373371048,776.8170354196044
54.08168009136026,192.46300310021414,-271.41018203967235
69.89877184143195,-599.2688093686224,582.9526718302593
18.301813452989688,139.1955155190612,80.47791325858921
-221.00945703970817,-87.8877107910169,106.47073451339683
58.34013699862426,-211.31881779990215,-433.63477606946293
-119.3681209403715,-264.7725128243186,622.2549121965402
-156.12878802964454,-3.5008946712462548,-37.59579953580376
-217.9864859974478,198.72731717437117,-183.40833829758418
158.46643982019387,-188.22318711627653,25.220262898666782
-357.0491967595538,-306.6620883707831,-228.48336886353803
-17.140437707852172,183.24765566521702,373.845793060447
-212.17809144094443,-48.30444957113797,877.9767729091232
82.50446761869522,-256.5129111258622,39.12734799335604
109.07822615757352,-277.8575175278755,-833.7497410017111
-234.89506131766854,250.81436741924915,-369.4906439105523
83.05741625676566,-139.3589923192866,-126.4839400498802
-45.787131995736715,-313.65321257763577,348.3137605186274
-289.1715414068183,-291.62093864069567,635.0757598798701
64.58331646086727,472.54429365752236,24.820487227588785
-78.27776972830699,87.50674171955566,170.14902769282276
43.97939435359224,143.88008678950322,-489.27700405623244
412.7067602627829,52.77892477603249,5.55183682953083
-69.13250440183134,-540.825559935596,430.40992895486465
245.8383621993927,134.18297560634414,16.191353790865307
-30.883217678518406,-0.877933279513726,-193.70156833869947
488.86443364985695,21.686852040159327,-618.8316024633608
-67.14686138114145,-303.5006039920138,-721.0036219292822
-160.79622564079148,-104.82505432406317,-779.1861822388532
233.31164150454788,0.7048140623634924,392.0201922033797
-187.7322913471669,156.60982914499405,884.7107452630619
18.275048511591176,-65.25029743019023,-195.11046976246274
209.84139320289347,-156.4843205710734,-161.21816751916853
-108.3289935321576,355.6952553696211,136.8532206893567
-42.60952639509028,291.99753162375043,450.8261513185863
-48.548679079003044,-287.1783526401156,898.204382294942
-239.92109540255998,-138.10291136277922,634.9552199910786
96.2755251185508,-63.844989524823816,799.4079524440805
-163.77524219963783,294.5323873846711,-129.8329027863807
56.5670983512383,128.04335494938982,-522.600120707836
502.492224435124,-149.6485466189161,-351.0676474357856
457.17637736766744,127.15127391091315,781.1059090239238
248.6041130646811,-216.63591523653056,-355.55719240158936
161.36545037690388,-210.33909949679082,412.0349174156877
290.35046158253255,5.766880614864008,-92.59278695866564
-269.1761187754876,19.987663138219354,274.33319464640346
160.72399121227065,26.897831350391755,-20.132790174026237
-16.683230497000057,-320.84049795890877,-156.31571399225038
-246.3966030037381,-282.31482197625274,894.1711588976698
-24.783071381441154,-176.5104190840335,1376.9279349563749
236.74998748615423,84.77571351928579,-533.3552044490195
-180.86487278078965,-147.18695992405432,-79.53448296398888
451.1531867946105,-14.797093091475274,982.388796993741
-139.90673344915473,102.56606072847802,152.85986604252727
158.41423200408738,-26.608221840754396,-304.70020383887845
200.93107781668164,-266.5455863871264,-528.6629214324296
187.5158240726996,261.06769507592975,64.85501313991256
81.33080270856115,230.80398951394585,534.2843449004662
90.81064146662648,74.94282917266587,779.4551865401696
-142.62001442498033,-149.52059560222744,-396.82568560493047
70.19942263267302,-62.66532310494711,431.4527593080757
158.92703932729506,-161.8939905835797,287.0065391802743
-327.7417315470939,-246.41773199628108,-232.4265820556243
181.9767224406888,353.3853518618203,68.88107681283277
113.22671731798992,72.77146724188623,175.5237294837721
96.36406217245158,84.61781903188701,-848.7286052545707
7.78707041607808,-78.42358053016673,938.5523539168594
-272.69546817787574,71.28342506824305,-90.43954023902896
-296.68560766051337,5.814192059793196,-228.21663900745074
-165.82503465250517,-154.0734307658179,499.82532033343716
-26.94734967680309,-151.98777799701838,166.77987536596373
376.0084663327472,101.53172394825386,-224.93079821780702
84.6211542978156,6.205247216456545,267.32304605134067
7.000477918273844,-21.05648135824265,-130.12319288752326
-228.97692927046816,251.85785196882406,-253.87731422094288
-23.855051590050476,156.95084790827826,-244.90181022904122
-25.446831029869067,-268.58566264164637,302.3083047024681
60.376180708283535,-94.48730732096368,-136.56515070333253
74.1204788134686,2.026674389870849,-35.197175900197244
-227.90699719796064,-204.57226611520286,-26.119759215407488
-87.63989992988618,-392.1981437628341,1161.539853290192
-102.85015584193556,238.11701226741607,211.11298415122423
-162.90811026414238,327.92624232311505,410.65646047266966
-340.20754535109927,308.299817509097,-208.66891087023865
189.45338306473977,216.8664329699395,-537.6991400591518
52.6010884430588,27.981119369777208,271.0045617254195
-85.4275512452877,-209.29163578455902,-48.24723881766006
133.7919753333181,-178.3129563824942,127.88305279719586
152.48846154680584,-274.2151314639244,7.317635862299362
64.00062820163959,132.8205904533441,-110.28258798921874
10.684260807370334,257.1966138979749,133.00336213402178
17.361882393098497,-23.409316973006145,-836.7300172091994
-64.83646334528073,-29.801911803627164,-220.3801836841687
17.86305384634878,-205.07092556337042,-56.40820903380908
191.86094055853812,94.24374801311347,-86.01295364984198
102.25759906147974,-44.90197295892964,-905.9825492698161
-178.8925389705582,-209.7624113218331,71.25991884643715
-258.4470516921155,-73.06270149321705,-705.9911156908117
47.71187181097727,-21.94614613748506,-392.1550704784598
51.88742531090609,275.278593004739,-1122.21018086391
203.85825644674017,83.94481181288171,168.9990498185368
203.94963241816885,-96.37120479923931,696.6470872551776
-133.67253682659208,131.22718951692084,-228.98315038674164
-14.357601987570416,40.874452823075686,-524.8728296049696
61.7052991877186,-21.526803081008865,250.88342896357403
148.03871888130246,-41.256355805489456,142.38862693096678
327.24012234449566,-327.0990072929811,-70.02770965639964
234.99592146661854,-282.2547239932134,-651.283132170722
-257.9936534760587,141.00420476288522,-965.9774335246826
167.17469326233717,313.6447630409563,352.3332180266075
247.6364621306226,484.5308858736298,357.96272106685814
76.27216353536352,-112.4357854009422,111.23076115068015
3.976496032695292,-149.72001914610215,-143.3488441068627
14.238199292454851,-222.66376350285614,-321.8854889291146
189.98588574804023,-116.80167952988538,-342.28273351912753
22.874612831295693,286.03468505398405,60.380401048973816
-87.62109048419778,-240.5430193312637,-24.79262760721499
199.35072301682732,-244.44623816585053,297.823686105823
-209.5846812056324,42.85174193037719,460.88428928626934
-254.62602792384848,-197.80718262217673,122.437872198329
-61.144586001058954,102.86973736174451,654.6485790420763
-394.4359089756364,-258.8091289773349,65.88890946198488
-11.270339116911668,176.3232706669776,-293.4297607237587
67.17934188425147,-147.88173224092748,-225.24677775426758
295.37071802086746,147.6671877403316,-22.445974681970558
-1.5214278734026276,-30.99092935799362,544.0211315395679
-5.796747152643998,-10.304663922975763,114.57254124482994
46.285719932137674,-106.972409928282,187.8096165835664
383.0069673596422,201.76527650754988,-471.3683519304341
22.206223121271616,-203.4920294205092,1058.2036857394191
17.58830179490574,150.89946571408527,926.6039451317918
-17.9184607118624,-64.83383951065713,-98.53250835011166
45.105813825045935,-251.7285908614668,104.81237565440743
116.12757287946064,-36.5311609720961,-371.6079460095153
-131.23419993189583,-297.845492966939,-61.56519370875437
207.8375234528862,-499.5738479989053,-222.36214362422936
-500.23897669295667,256.8710986630355,-363.16126876870044
-496.27924176694876,-39.609534931106936,413.4335954606796
-324.81493965265827,181.21758069834658,-289.7967490374055
68.59305127899373,248.82990630823792,-227.90234876540015
-111.32242371159802,-222.27166012191302,-992.5600735271858
638.1361055577459,-112.0204381369948,223.42203493112027
-76.99957089264487,295.7195042046835,135.64789088377802
-172.4801726822198,182.53861675957359,-756.0226158220702
-40.08107165184961,484.42383650601516,-556.8213571737691
108.67662049967348,-119.13880676137217,-351.9756796221544
-9.08896650767265,-13.741664373508181,-456.3895805878425
-283.63212886100644,-37.82852521211821,-410.6079911767943
-59.746146991502215,-218.1498758895833,966.943272552152
250.78064768170537,-39.77830840810233,-316.36732623169036
300.6244023932419,262.29229852544614,633.0933369138882
-109.79965967176663,-302.11508582685684,124.02060283945004
-80.43626167662386,-11.652243386697721,-175.94204114363393
-218.57949657298482,-394.39134056098084,-654.5509106255478
155.1274715016738,34.40729671466581,192.03874031503702
126.0340728477427,-0.7596435174664127,602.6368865168214
2.706445122798046,301.72747477678917,101.44914266170775
196.1178220114374,239.00616777031857,-379.6743489550102
478.606714906996,211.1510490305507,-336.4624750122712
-94.38409286856981,-39.007016687294225,-228.46773612121046
-12.855148502739727,-123.11937735890794,-236.15859221676206
-244.2443129427223,-131.63034292858146,48.82128825215298
10.47069780337726,138.14371036809976,-279.90459869841646
262.53254772755207,-277.5531871984403,191.13048017649245
569.3077426276789,110.14789386248161,482.7665745837828
178.19368643043074,102.98581521614037,-866.8854668952985
35.05082443170551,104.51036913716054,-318.2976009943552
3.438743481374771,45.23073407907947,-222.88450273390131
333.44648371948006,-168.80794722589968,59.683870188997915
26.06509127362518,-30.258671794975783,131.00434259061157
-285.28379276788456,-218.63023947614332,1090.8304038592958
170.56425497678168,-283.94825559456314,117.19223852386139
-263.30666955157045,-112.34456797394732,-464.77029112087894
69.41989651701513,436.8133464376875,-222.8157073463231
-39.524534730257294,213.52252074355263,-1064.256757002361
301.48604114964076,61.0192069823399,-432.6311386529536
-170.52342313614324,333.29491508595333,608.2435110894504
264.0568812291994,205.78938347787047,-141.60497075663335
49.21874680987115,277.39881343743934,-40.836163779115566
15.01370443596606,-94.26118429681514,-348.82835003032284
88.72462949396807,-4.831635481173299,269.62148450669616
9.400206892107574,-79.8007620493378,807.5528406340097
18.13284626133284,-0.8176401581830963,-410.48239860639546
326.7543655191009,137.06206745018855,-162.42747772730988
-432.10321472877456,-47.13342942132296,-717.6951411930246
193.46272167194184,-190.64975855352768,821.1750109312445
-122.49647062704474,24.883570868509945,703.4702352232367
-180.4313046441867,-11.99441836967431,458.0355144884916
-237.7344867877154,-300.43800058608434,591.651388692579
-526.9717564046339,-60.30509001731463,-274.4209332240733
172.9444238295568,-130.21524652090355,-433.20276763325194
102.49039484198958,-132.88975339742962,-527.7248881511414
-34.2719028984111,-223.95921555206772,-21.419893783530803
151.68380215138416,-176.28081228738162,263.8815244075201
95.39573500140264,620.037924347314,617.8524589887145
80.2949541468402,32.517702897014786,33.192693286466884
-468.30615309281933,408.44786555098915,179.5831087869502
169.25419163621697,148.15989472272744,-134.95660005292234
-200.55705351439158,278.17995466786067,-878.4266030380252
90.66908772354715,-269.0998309331817,155.9478017518744
-375.1008914440656,-197.14885375133485,339.5585080751607
-56.174206180930284,485.46028877335175,-447.79191095650384
101.03534081604391,-27.602609351062725,69.6406831401036
-403.1429207937931,-296.67781335261327,-198.83477773652277
47.36147538559089,122.86248402709047,808.0524610659122
212.55098133433762,-191.20055783187283,591.3297781070312
91.36202694571558,-108.02583646904182,172.28626789246502
-116.82930924210395,-406.1659222528861,-556.8575378480978
298.63011704415186,-22.384962935641497,-261.416457269154
-127.32511716402084,-154.71902244436734,-279.27524750885254
-37.21081125724428,-14.059827239914707,67.19132968873511
110.34741982092211,113.63807031496765,-83.9185329323845
-211.75295940999393,171.71140357506226,461.30607810864217
366.63553027246553,136.15645445263388,-499.5680024859187
387.0911740002712,286.1914875467042,233.01113102244904
-298.0634086759904,9.865768355917112,188.66483889667256
227.0602551528031,-163.92717865140833,-592.3869603238812
-46.241080993556174,-213.4086206025013,158.8766069184046
-40.432350814328224,-359.7950162751113,333.84224723660685
140.08914857836837,322.72870003479795,684.9427682994358
270.77293067890395,48.112302838021066,491.75057016643586
-336.0174591824847,214.5028037680452,-395.1293121897723
417.6599823279945,380.5361402609762,-301.82911218020996
-12.36842140631283,-236.48469689592727,-1.2402215466514734
113.30213384424815,205.13238798417532,681.6033689309972
185.45789090874734,-138.55148616358665,253.72786377769552
74.08460441193183,345.44091962669495,-334.3419841212052
-165.9357910087639,-359.84268475425245,157.92400558476248
-120.68911272590705,318.1774052584145,-401.6539368826654
134.45848515665233,177.5802817779419,482.8294212992853
20.25082052527332,-199.72175117203048,369.3516001781213
-604.9176919930462,168.5697378598595,-882.1562499128634
-24.30495693267762,176.9549046952503,108.2372033548179
306.46966863202414,315.3867786455151,422.51618912307947
218.8273630079366,51.70603022548834,-501.8482687196405
-135.98515149650473,-183.1751218557499,-3.350355353383376
43.52641537770351,201.06082396076422,-255.71465256331138
297.5863492636122,-179.8556366910823,122.38532898980691
300.8773605481723,-241.81110945267812,-951.3372171241538
-257.0188035224982,327.57921687908913,106.24891972873377
118.58284751248533,-168.39057974189353,-1005.5074334705349
110.33127512193866,-164.19825890847073,95.08042995697201
284.21035987605495,-193.55397654445585,420.515207455936
9.992997391438017,241.74300725265567,-873.7460869811227
379.2905986523752,-60.553717306828645,-349.95315876925616
29.916665299595053,-229.93060146259526,10.544027154971515
-97.57148892630953,356.5208002902467,-325.3289538712355
-209.120394438773,-342.8577825037362,246.61285066679866
80.67050916389893,161.34625374657327,41.9880496297364
205.24716771718735,-239.62886364011075,77.12827057026045
401.5442244451735,-446.35777748486447,132.24000508659927
256.580955680354,122.85502538880621,-74.35488567945322
-231.36399718584656,206.29915236086808,437.2603746884979
120.12186752024459,78.31036764373884,759.1489909372019
-159.5791169530518,-64.59742380726422,-913.619959030638
25.990309281174117,102.76502622420448,2.2532536742488345
-349.78876969287086,152.85742248278558,302.4026595687869
-122.26561468229728,164.44829487346925,-307.1698255454374
24.8155753887308,4.8580553102329205,356.07977006965143
-29.769342424794367,-23.929350405589638,160.10010649672253
-312.79426216258054,336.86024791051506,257.2327513209257
-297.6493936658904,-353.0540133531723,-464.9258734307096
-10.221049897827577,62.34764038546261,169.60690399740417
60.202169924221394,127.58807474649734,-465.6979698453879
-15.520478484835,-110.6860221147241,347.72557051321076
-415.56400698556297,-112.67693264682445,-231.23166316951983
-177.71659068099666,-157.8561471244844,365.39154642137095
-110.1645107248036,94.94928894090275,-117.72369447015537
-258.50265017846084,79.6406439849414,-571.5447915720317
-249.28416884647166,581.9664220588411,-303.9045035175764
61.52922471146842,-80.80408347833709,-141.99209448277895
-158.5872110856199,-252.65211529850515,536.3959891876704
-109.65162067649507,-85.47518684354453,273.3038486326341
-206.8151101919719,285.41041606218147,-0.770205038364143
45.33349573532398,-83.83546463853058,127.41158158285245
35.69159118995579,-563.7990643867158,114.52128810011988
-185.62722841357103,-41.401576189081894,87.22164648225673
-118.70817591985288,-58.23563407376611,557.8731872943766
348.82445444221696,400.03999844902995,783.0445741938624
-210.04404399990273,77.35999427430487,-115.40544386657129
-23.436055151516168,78.06842054160138,60.227759028682605
-57.63623385344524,-517.4828729165067,1051.5894487952664
291.7296359595802,176.16257364022655,433.05628663142693
-203.14230497310265,-53.36756448708162,-532.4012697801975
134.1492455991378,17.17635468977807,894.0246787923359
-54.12722818153056,111.84065991251211,-579.9542448669755
48.66491606033268,-42.08437631007603,-419.7547918497938
-113.09059512254329,231.6765726411385,-184.45950332920415
-235.84852195311484,189.04283865142557,-29.455239520780435
-36.239592683886876,-127.12576937719808,200.68000395831092
-86.85689549371384,-279.33020698615275,436.72557028846444
263.40292880024725,-11.563468268434542,430.2085759577684
-47.11293222608005,205.5213610003767,-233.35741235866848
533.1194358138848,-265.9929597465321,-784.7663568039985
-61.02659618395649,-318.21192885560896,67.61709161207109
90.27546141780265,304.3459561759376,-111.73119229911592
6.175283074499966,23.435780491215187,-204.9130449066988
-433.98191557588063,-55.77347777106678,304.8976144532814
-78.6391324421224,-135.06509542550856,-828.9820063215435
40.42862424829386,229.56934120652767,-633.5475253360373
-151.76458335947848,10.729054273754048,-391.72033322449886
-112.51525327091608,205.55540945800064,201.80585500929635
244.5188302690217,187.61369751503386,-177.82747144431158
341.3873901248083,194.49954947787506,-89.72186266131499
292.0445007944256,45.87347517963453,-235.4307521199121
24.16189341886902,412.95344829444696,470.83372986726613
-91.15851069269216,-146.56166037148137,-350.16888209894614
99.37479515314995,-263.3848695414846,-347.80849394633816
-76.85358769303423,418.66039035512046,356.53961396999875
-85.53535766785804,3.196719243778274,739.4808703515994
8.444359265779301,-430.54812875352155,360.409389489222
10.993072525913135,188.0048547707029,780.5646421457604
94.08369847991669,147.00171344317437,132.7824592788083
-19.297584019742185,-102.62311830818362,355.5467260207852
108.69270784433034,-111.10133635296555,576.9038681656895
47.03793364422149,-311.7473730653693,18.489992179754157
-163.45992091630788,10.001826167632661,1153.4650161008608
-76.65930253734375,-36.288937143116605,381.16479026248396
16.11396826530337,-155.1214552781241,842.3135519396725
179.5113154455901,-274.7927628902127,-317.8309475355715
-47.9953554248991,-211.39074853781327,509.1509145895106
-42.46195958599022,189.34442746700304,-96.54669269098949
49.649947710013,158.25926264858063,-156.34785067937403
-115.74028519113666,92.46772766877517,-320.5184725449685
-103.77281221220673,43.791073424950824,1022.9847715510548
-106.49820912736803,189.75905346018845,-153.51600611647356
339.56745279733093,38.63856796517036,-90.21757036465021
229.26915642983187,51.52312736672597,-19.7761593063445
344.01289570557566,-8.55565836680563,-157.65684994788367
-192.1758752223014,121.81963798019993,957.4488201384337
-320.83164826893056,4.0943917505280485,-253.4313706063077
-145.86410410959684,-80.6493289533235,1099.733249328702
92.73953209255295,14.39402731718961,269.0090488652545
149.60413741719893,258.1967662698291,580.8288585788129
236.75399868034407,3.781683242757936,-240.8133140269573
219.99618731836898,223.4465601057996,-126.22613111113651
-65.56509343671657,187.10000080356195,40.98212033484748
-51.098675496610404,-179.41144888497357,72.70042528305298
121.37388535157996,-31.584279325202026,574.425663057832
-184.20580293271234,-89.0757596001634,-281.21392680187785
-324.7369857394841,-358.2496347533357,-336.67741441068097
-9.132633230869182,148.60689448396403,299.0738666625972
105.62426598915519,-47.890126458052904,990.13334831814
-390.6262523529821,-17.59634331456932,450.8347794180625
-40.72023145867182,-161.95895070652236,142.6193862568771
-42.387319968864965,-278.3077427428958,-73.97542464168183
