-1.3256685558972798,-2.6910848683926636,4.437573383871312
0.12864058420689845,-2.955214062497854,4.217808569553205
-2.9088979413828766,0.4921154050756243,4.983810008656183
2.2768949695818796,-1.8901970013935223,1.8445655152782918
1.440196616213005,2.6004387076614055,3.1881194233382844
-2.201151986279767,1.986509179066176,0.6443083647626124
-0.5373547124145679,-2.9028000339491946,3.3328172394471434
2.7020487806960634,-1.2589379839470607,3.971049842728661
2.0815858288933873,-2.0914137500127596,4.434967573548979
0.1375825559740683,-2.993327337884216,3.8755390613608465
2.7604591670066374,1.0821725600432446,3.767852880670523
-2.863660847061815,0.8713514176274989,1.1936034370564657
2.7241941925752675,-1.1416107872564578,4.3044323825594955
1.651043541874406,2.4485681420612635,2.5306284030038864
-2.767983526800529,-1.0505443262100689,3.8019617372579755
-2.03896114185501,2.172328573604247,1.0458444513298444
-2.618030027540601,-1.3913426052148494,0.31526297345573273
-1.9828692542139628,-2.2418407760028733,0.19420674302534802
-1.9399764936361596,-2.2225927471221207,3.4096597677218465
1.4169240191548125,2.604658769894726,2.712383219627779
-0.5325793716433416,2.9055000992689344,1.699327690281388
-0.16385905491760183,-2.9800162010531683,1.1168336431714698
2.963665018396298,0.021721135797270308,2.3429377682693735
2.832123039834851,-0.8719743251086324,0.6357208912617301
-0.8076519912675728,-2.8406832906057167,0.6571280592438994
-2.4045240308304687,-1.7849553450094544,2.643416089831235
-1.6429413774994812,-2.4612936324526844,0.7727979040480937
-0.2713217423556019,-2.9540993885240376,1.14241932003954
-1.4291971613947707,2.5944182203163746,3.2702940244264167
-2.385105674688871,-1.7544332881504179,0.7598243355726353
2.027770348100083,2.171512972118795,0.5333685949968092
-1.3227550707646427,2.6405935128768574,0.8399155738397912
0.5614574171010327,-2.9204336120140133,1.6200250315632774
2.2837665213586136,-1.9151082681706944,2.0535000580232388
2.9549127368081294,-0.12900053282062987,1.129007940400345
2.8494080898039758,-0.7668324894155785,2.5616688652029316
-1.4785205114802185,2.5977927822661773,4.977600717913532
-0.06926875428728714,2.9526686564622753,1.731545798251524
-1.2403838591047516,2.699266464237789,0.7362693237101875
-2.161601763794082,2.055310325302135,0.8746875625119754
0.154350629706463,-2.956242218283009,4.762665854001571
2.3508790992650415,1.797968860474483,3.7181638964643855
-2.70537976126093,1.2421803972200187,0.3460743843542319
-2.974815913591352,-0.341874234888703,0.910712099319228
2.614340501430189,1.441364084291251,0.4761069699537912
-2.9943436239981813,0.13896829933413596,0.9457493643415393
-0.9718532496088572,-2.7900350586874874,0.5418614425014245
-2.9895879545133965,0.23446924497461286,2.9738589762816807
2.6036438481738515,-1.483821195666853,4.8432696028360125
2.2376634815958383,-1.970503736081577,2.727162285047962
0.3375965363252672,-2.944526401821361,3.43191017649823
2.944812403505077,0.3311891246509437,1.2875906947801523
-2.348039818425583,1.8483236062339898,2.30436117820212
2.5422319938299704,1.5831695950154496,2.1976584638362695
2.149268076529564,-2.080982159006275,3.1381748425437594
-2.409356657961606,-1.7544780137922769,3.6843584379456926
2.931706492772437,-0.47264449935224717,4.533613346459266
2.0315237643264625,-2.1695006931582665,2.6079691976489707
2.1005861804675257,-2.110908354084306,2.166090004419223
1.5132623916115684,-2.56793492155653,1.9141124592387881
2.4652584749916335,1.640051359940792,0.921843347746174
0.004305033867148804,2.9660856863172254,2.197035613608386
2.5192273232859415,1.574138945410988,0.5006236652961987
0.42628298654801294,2.9419303255175757,2.873138583431202
2.452027275914743,-1.7101655038059116,4.098957595359436
0.12559871371042974,-2.9946648521655073,2.208395534975117
-2.8855604344596166,0.663605183199206,4.7120748465492195
2.466927476861317,-1.6199480131488135,3.274800890702182
0.4312496686245347,-2.928856986314091,1.9116426200992431
-1.8903846231354586,-2.3200660031901528,1.0306727742398225
2.965678874844049,-0.27298013399917304,2.4112748105367157
2.819281649815493,-1.000480377036223,0.6008081592620357
-1.5667640036692174,2.535181985257638,4.458193699459445
1.1212607122238074,-2.7513242553368875,0.18079524702198313
2.9550477694978285,-0.19379744225579967,4.305056623729938
-1.7821851874919818,-2.3868819022597285,0.7352967209841221
2.8908140439867145,-0.649813834924403,4.141327169814111
-1.575390774200444,2.5155775004375704,3.3070601906143344
0.4653433803446015,-2.9169587193530235,0.8022442682626474
2.4132336603711466,1.7167499156207813,3.703012996701947
-2.494915619254244,-1.6173539172172728,4.427010726550346
1.5563402373087116,-2.538387827753341,1.9193360665048564
-2.3279785964218207,-1.8450654965083597,4.394105241299037
0.6443386907285883,2.890845259530271,3.591018400500226
1.8731063247933324,2.2955341237086393,1.6418977093648208
1.1293218510630822,-2.7355309899679265,1.579541038712099
1.9388963551172136,-2.2715276477977993,2.547861333960357
-2.065329457469262,2.115143895116806,3.82025015835785
0.19475986764044834,2.9454315528371455,0.5902731305825959
-2.886501015228543,0.6169974616476352,3.6073610933799642
-2.470723687974038,-1.6837377582915352,2.6280892531853906
-2.637242118528576,1.3581994100738968,4.746329809505895
-1.5302700785798162,2.566957603725236,1.553590990539665
-2.1114299478160774,2.0721795628832553,1.8339776659432439
2.1840843812332134,1.9886438383954137,0.267781236167558
2.886863832572062,-0.6235279785010186,2.196293226017647
1.028781718163962,2.7648363096218884,0.8193003095810003
-2.305936427714771,1.8430177036769886,2.3860193428078875
0.8021653879896782,2.846162957437453,3.0704214119266466
2.4898377480605838,-1.591169207039975,2.6531335721181875
-2.7804462051256533,-1.0753114063193931,1.3149540583346582
-1.839921386997643,2.313000540599162,1.622373606808053
-2.976211258255041,-0.2615990720316398,4.283118771997592
2.7845649412489526,-1.0476523553846266,0.3762151273865272
2.50389262536958,-1.625493009370669,3.337604276452467
-2.5443750586682916,-1.5101995745362413,3.851831724452417
-1.7879973070848296,2.364806353603348,3.085136654183231
2.805650719723322,1.0345641134509922,4.180661906269201
-2.760786034959998,-1.1018013482593347,4.063388336675659
-2.652332287591399,1.3255451425240872,0.6425264963448635
1.2992915312887237,-2.678114266983304,3.55187432351805
-2.889331170295515,0.6969219519477413,2.6934688551195767
1.7803949489531927,2.3563723426172087,3.467016002274403
2.8528377019347246,-0.7549651099588249,2.3329741035615803
-0.10577555204772168,2.9603185531617227,3.0217406112859817
2.4011156676716854,1.7296347852074434,3.09186537089557
0.49823507024919883,2.953052573404982,3.4949250517909274
1.94530414361579,-2.2823972350934,3.7871037036311646
-0.24937485773033113,-2.9786842007524386,0.04925052255617124
1.2756599804097633,-2.6701633126678876,2.736302826043962
-2.571223948270321,-1.4968207557743967,2.950406211283659
1.6632496452313852,-2.4546831997618157,2.7448261696836918
2.819325662777948,0.9005676992525072,2.397318916792951
-2.7812536184462995,-1.1005558154560253,2.8635130504716795
-2.9553718763071615,-0.32236097488248117,3.205170727569498
2.4186750150369263,-1.7371912030877816,2.95097932625764
1.845643505683964,2.357361927647082,3.820595356937467
-2.843352981543083,0.9139554771290821,0.45708997535689355
1.4189079621760046,2.5952784786598593,0.4705509179226558
-0.7266165467275639,-2.886711578690717,1.8618895937996376
-1.9484835415546522,-2.224503657032805,2.5825131540243906
-2.93912338665457,-0.567762099740784,0.8260669338888865
-2.901275065316874,0.7585134792258096,1.3084473407755763
1.5654152732772124,2.5387332907938713,1.3418241754027727
-2.8981564984271277,0.6518400214692232,3.1577054127109268
0.29014543432247913,2.94346589940744,4.851334006248186
0.6548588084517735,2.9188930409452416,3.7300385677354653
2.8161789217814,0.9182564011746658,4.90504018493509
2.9666462857413114,-0.08074252609445291,2.227417292527187
0.15932850050708344,2.9476459341020114,4.697737570295109
0.7736847934016177,2.8955721314805456,0.8274902590805816
-1.3588813573598708,-2.638940306491178,1.613214665822214
2.654541678677337,1.3585727125997755,4.839382102807415
0.9051110355947014,2.844087753182719,4.603079692826878
0.4952737732738545,-2.933588610072292,4.303639196082126
-2.6635939741244377,-1.357637117043118,1.1785781176186676
-2.8761040657263632,-0.7703699532556713,1.1461122444072984
-1.3760651599816252,-2.6613075604099206,2.004599793405238
2.7122097075466445,1.199996366130346,1.6296724686950874
-2.509882353666023,1.6313650862891256,1.4761651629162302
-2.3167877309145344,1.8727078352153688,1.3125505588534603
2.9796701374283723,-0.19285711600338584,4.5120133575855625
-1.6856218578181759,2.4812400109063635,0.03791519262602461
2.236128268007668,1.9415972511137347,2.8427387719739605
-2.9815350647059664,0.16189808720481988,2.2291902554770626
-2.864134075679233,0.7630515398803821,3.197955017816581
1.816586184582345,2.3563611389561987,3.683475631568796
-0.0923605789328287,-2.994813815298617,3.744939077597672
-2.8072876845590287,1.0362020495798943,1.4695842316310914
2.126205985780026,-2.1141770085900697,1.9126617129678265
-0.24580432908952696,2.982559205019569,1.2583463843217746
2.514487930782856,-1.5704144046605728,1.421861838431142
-1.2723517662380601,2.6793644308271984,0.15312341285269593
0.6878571150237295,-2.880206480986649,0.6846667705526216
0.7879661634920578,2.8433747560235303,0.7332277358502676
-0.3666092593932413,2.959462392454904,3.704165476271945
2.5366661950376015,-1.5344038026627,0.7543566418474579
2.4417081087141015,1.6632272458661481,2.4226545528906414
2.183602721634557,-2.042524514525423,2.9220386857467173
0.8898576412574167,-2.8486692116395704,1.9536008480046274
-1.9718346950660168,2.2490796686672976,2.8494478822573814
-1.5576933075445132,2.540242700665739,2.7921196530700456
-1.1503020862053945,2.7454150661119785,1.617371292627619
2.9330533764245175,-0.5811639173101752,1.1140812145386487
-0.7450757805817608,2.891374161164282,0.4863157408725377
0.2715740554487792,-2.9557413644799864,2.9452326440030947
-1.4613261638440567,2.6072400107420997,3.5567506633349106
-1.9724434004161746,-2.233597650063327,1.0789401418936646
2.7471110165739034,-1.1844973854614036,4.928303817550962
1.2552854490358365,-2.696499088091087,0.003967719626606914
2.0441947126367634,-2.187574226535995,2.5192514150509386
-0.6043310400640826,2.9356157833655683,0.40198868187341363
2.129272338633359,2.1005906020970655,1.0556574541625907
-1.385036121540166,2.6240507780769224,0.2252556445444237
2.654621386149327,-1.2959065718691543,1.170489853022247
-1.0028962538556547,-2.824751942509509,4.739367730546165
1.703777470211876,2.446213305356398,3.302394224890828
0.4695865739012886,2.9166884191740907,1.8138034844163902
-2.970054814348354,0.23398075635537485,2.328191700250712
-1.8507626662031267,2.3571103549469927,0.29509267956423
-1.0883037239022182,-2.7823196023438923,0.7424430905612639
-1.883027357335017,2.2960074013751797,3.4296444844488914
1.5134658114043127,-2.5808907025296652,2.6401340761274703
1.149740044260119,2.756000201066657,2.48354106933718
-1.1641627510249999,2.753410887877461,1.539413637601848
2.0685503174268414,2.1550220177498827,2.0787621374822605
-2.840607423334226,0.8916906850729769,4.522797277255368
-2.684453872109441,-1.229310730802363,0.06410143865492046
-0.9137626058008604,2.8153001708528778,0.3988937364706774
1.7632967495841563,-2.3851871251916403,2.8081057089467043
