-2.9784623233725287,-0.30267312069748425,2.9943332995141136
0.3979715755835981,2.9526965098093725,4.494985517525658
-0.3956327186519812,2.954641289744537,2.6370421106291895
-0.10014308161394332,-2.9919307355937197,1.8594247513439148
-1.1478840030471194,-2.7276370786054556,2.7010943756705847
-1.314965713293047,-2.648352618089395,3.767008516829372
-2.644735720831073,1.311637217857666,0.2586342206514569
1.142811396110983,-2.749340717239569,3.601254570900498
-2.9459241396323135,-0.3061174388422307,2.8201026852205113
-2.9202545803517816,0.5202048377482984,3.6738925656527073
2.974979692454966,0.05359847666505522,0.44528009467275587
2.8553682409663717,0.829584018010953,4.377525305955525
1.049913357479316,-2.7843342416256642,4.5605900778899935
-2.75647985553053,1.0986297342662334,1.0273203283237091
1.8220295513419473,-2.3653391076480843,3.4379962689625314
-0.765049379918719,2.8568373318187255,0.6629268306877129
1.263571381107225,-2.718331729554891,1.8991216023844322
-1.7537905499087687,-2.426960752285877,0.22385254019647138
-0.7688846161945876,-2.861677994337238,3.295652386732338
2.9832420223181497,-0.12838163106729733,3.1444256589735655
-2.8743679692779898,0.8049001392128621,4.857105786858203
2.625319147576174,1.432926223534836,2.9922073482228555
2.2676636893354147,-1.9193130333218353,0.2553060640606164
-1.6218573149330007,-2.51884622134306,0.7642269994167583
0.5148720490052827,-2.923738128278637,0.5803864570842948
-2.0256199337592045,-2.197919436022028,3.6051057274406464
-0.7153336305079927,2.8963229223306217,1.9566289623223447
-2.850558023928061,-0.8653008096888104,4.81139301329179
-0.16132996581096437,2.970875876585438,2.2759259535843106
-2.8143517409663463,0.9817376457296971,3.1583886091812463
-2.5357261994334404,1.518402554558249,2.425768733984752
1.1918278524348014,-2.7203232485848075,4.683040307316498
-2.314529483233425,1.8506287222760327,3.8305581567379843
-2.8101115057932065,-0.9908154064144417,3.147745494038003
-1.3090240308514458,-2.6906250692737097,2.797449311757634
-2.1606800451686654,2.0453624753844295,2.7436949055872155
-0.7217861854651793,2.860684377559368,0.2578979765214723
2.069500255981319,-2.1525035203200624,3.2595447185360396
-2.92681033085527,-0.5354273701135775,2.470013745464214
-1.3467796169989867,2.6764094234814166,1.0613986204902626
2.5104724972401904,1.5673318785280645,2.695764107192703
0.7453225177205508,-2.869442596537141,1.221886711613354
-1.95735892598956,2.2728004520953133,0.13751614019115233
2.84688246065109,-0.7775459938956172,3.235167219591621
2.7603462447396465,-1.1323095737062858,4.553543685246928
0.5957937957508922,2.897677512349641,3.294556658572081
-2.8291674414973493,-0.8443786500200368,2.5375094451414193
-2.70996208511964,-1.2596103140535668,4.243505735775251
-2.558591615451265,-1.4813749647137886,4.366910388397109
0.7088692689097736,-2.880284304494266,4.330125794180698
2.9540902853187596,0.4795453154747542,2.5612267766640646
2.1228633348114396,-2.083055311466137,4.7382093562296665
-2.9678256869593644,-0.3548977094241112,2.4769859095801157
1.6831328035680153,-2.4592080862581835,3.8638038182233325
-2.8418783188431465,0.8274644358847508,4.302692223375654
0.9683230160397629,-2.7895717042446573,1.7493126772567058
-0.20860855414429405,-2.951947855153796,0.5748679260945289
1.7110505411648027,-2.4381822768322663,4.836407356587007
-0.8406786213614198,2.853966943259958,0.8853196222385168
1.2178295976692668,-2.709027155987721,1.8046830822013615
-0.5039744743104719,-2.916402326637167,4.868314678715869
-2.754680535931153,1.0697960300953544,0.10786646780266806
-1.6665985552587534,-2.4764437011643454,4.303166476511665
-1.572908206750994,2.50457511745431,2.3993676879074872
0.559406216835364,2.9094759696091947,2.6034899928605206
2.1563075302155457,-2.0364054412845145,0.8700130303771719
2.137899779285188,2.0491208048519005,4.633178439789539
-1.0015319230636377,-2.8268991772685332,3.254819818904377
2.38467931676307,-1.8190254448589522,4.237191238129004
-0.7747841896587223,2.8840953417893607,3.735440272108976
0.18156109712626953,2.981625673141238,4.690571208216109
2.808637100910696,-0.9691564418383503,1.3132099010327014
-1.7001102698801183,-2.4297554298774693,4.003355006777541
0.490084594218072,-2.9245267337188,3.3716052081025345
2.93484313059025,0.542862141105452,2.0451798115490156
-2.2892120766961193,-1.9109192629817544,1.3269610631981832
-2.3390759628590216,1.8600294394944354,2.102216488527096
2.671346305190856,1.3522243234352056,1.096899440123611
2.7941723823147426,-1.0294351773846822,3.657743207232649
2.197606723812543,2.010812286414108,2.8142672081573314
-2.9298711017306998,0.38305147713870913,1.6365260046320629
1.1052892480016128,2.7748974036711256,1.096786334675905
-2.9468395928652185,0.14276903121758167,4.555858684617465
-2.9764534361061172,-0.019675542824488426,2.598766627401608
0.7172070949297423,-2.9080299631751294,1.0519104715536576
-2.9517923665906998,0.3343025314011929,0.6314038738837263
0.9703400540473484,-2.790878507399105,3.1490727945938257
-2.7243589217945985,1.2064115307957437,0.9597094641512471
1.5466474948083297,2.5249064527136826,3.7457744079970725
-2.532532939754042,-1.5667241042108144,3.9107674482830213
-2.110855130759417,2.1125192268345456,2.1193146260065587
2.136086661270409,-2.065214552460924,3.15997341318024
-2.174826334137942,-1.9941032369201819,1.311500122013517
1.6849719850246045,-2.438419986929629,1.0993903451175941
-2.2472209102949723,-1.9609271075572718,3.896959609455374
-2.1005896963316935,-2.138057796642571,0.47431345870946773
-2.594786292623876,-1.41246976112048,2.7029194808924406
2.872177027701908,0.6989277563788161,1.8468960842752096
0.16266671621059867,2.988315512072009,3.029119388941448
-2.5256082426742488,-1.6097718661823819,2.515716832606599
-2.5270777566715488,1.5368656166237598,4.531662280358011
-0.11871826027636345,-2.9761053921297282,1.4701105302172586
-2.648652163838329,-1.3069388092049898,2.2033598733004855
2.7963852554604367,-1.0328058519328074,4.2385374349480385
0.44076393621224935,2.9488586585363428,3.311732210813566
-2.9436317977172157,-0.30743231462675924,4.713785002776024
-0.0730603167819312,2.990287677648797,4.502297449320661
2.9727808550721946,-0.38082289553063287,0.33162588010908656
-2.6473760437899987,1.3726235243887583,3.4806155305310753
2.6804682864794973,1.2954477614111009,3.3487861428904173
1.9712266297979841,-2.214723526074616,3.158775700266318
2.288536272753465,1.924495743292631,1.6444273000399212
-0.7159777759998586,-2.864082097537745,2.0037374702392245
-0.36312810526752937,-2.9321301715028287,4.335147736956335
2.4335394549694365,1.7341092574076666,0.19976887213422334
2.9320832818075693,0.6071020701957053,3.0176222552226175
2.409008374433032,1.7493899919989049,0.9447970800234684
-0.6010759359115724,-2.9160472885552693,1.427819454107771
2.081874971257562,2.1303229782348847,4.607458911692451
-2.7147027438981146,1.2270876125604269,0.06328335347919489
-0.9622822475485165,2.823067965659459,0.696619764454674
-2.6044043871183127,-1.410988214880978,3.2632499057156323
-2.1189014705108202,-2.0793694556647635,1.9928305250790506
0.8840673314621547,-2.86540901522446,4.661439709624168
1.3908402197742045,-2.6017977026659467,3.326651001288125
0.07647236494458581,-2.964904606844543,1.5428336050302882
-2.9808730514379764,-0.2750321450165023,1.5071674486165498
-2.6696683185290726,1.2665570459282829,4.097905367731215
-2.9715337357823013,0.40996120989586726,3.135915631934527
-2.614205469707073,-1.4229718078197153,2.0104225454291473
-0.6676731104695856,2.878980819247749,4.708164850179512
-2.980461140262859,-0.066144067631486,1.4110351613332845
1.8244047000583086,-2.323346214198519,4.783587663254235
2.290264879319118,-1.8922363754987914,4.135805001402478
1.2017022060964009,2.7198601293314555,0.5369472359456112
-1.9137832266129169,-2.2873174671423393,4.4996361598144174
1.9886960614696312,-2.185065852862201,4.389072311126033
-2.5422100155890295,-1.576581230013811,2.8784647094492106
-2.832938014186438,0.8272786441722272,4.402721783601554
-2.911991035353041,0.6228861550181327,4.796752571328168
-0.6297377434797065,-2.909762724993908,4.347309733801189
2.2994344314188577,1.8737660330466877,1.6321354923942728
0.5898674320506636,-2.9027958231841446,0.37733035425393413
1.455362595128009,-2.6106715690585647,2.8297676487850616
-2.301122751118063,1.869478942367357,0.7447428667474826
-0.8398194637089513,-2.8651908279246268,4.153347229784378
-2.9699506931914716,0.21525027937021649,0.06511846328172477
0.8105327900482566,-2.8563248644921657,3.2634426437764215
0.21173244603685834,-2.9852086655037664,2.610700693870902
-0.7680282122692708,-2.8938525714651586,0.998567871169731
1.521308431975719,-2.550454270980342,4.397631296875793
-1.4527836821460611,-2.6200628037529436,3.1842279660849018
-2.9675722947271694,0.02308039570563093,4.8232806187494495
-2.919978143719071,0.6325889869045159,1.0929428608749818
-2.9838694395502423,0.2181340647818079,0.992959631331557
2.9526095236097105,0.16383001473782366,1.2142184903070024
0.3006485096078287,-2.938926979093428,4.3315847729149475
-2.0316494031799386,-2.1555470266666226,1.4123215823465474
-2.987945745091278,-0.13364935116946194,4.743613705859429
2.8908664364941683,-0.7646910734951117,1.6498251687522525
-1.7509241209643323,-2.4081408783718548,0.5210348692215022
-2.876021275576477,-0.8266757568586742,3.047338043819841
2.3966060705907735,1.7459078168976236,3.768523106520147
2.971344587321987,0.24886706727126867,4.282975411792163
-1.2794417680320986,2.658149293354954,1.1144010758398144
-1.5192568729009657,2.543670417399491,1.601469878842761
2.9567065198609224,-0.4376648743454954,0.9767764782053506
1.8185588879610979,-2.380119187204176,0.014678290243528846
0.9873643809364567,-2.7906347196021013,2.836445297444487
1.5930780011552916,2.5394069270074535,1.2788709826586508
-1.7030032998551696,-2.418043337280727,0.2346422740953863
-2.844469705786996,0.8588215974278194,0.13574979883594518
0.6116448037735648,-2.9065821736662416,2.957882511797682
2.3980216264004066,1.7313667867154132,3.1235732645373466
1.9488126951581592,-2.250272554034663,3.5712546991693497
2.9821892169752076,-0.24056205036126527,4.842765850506207
2.6932618250851146,-1.2661500809989772,0.7525017487923757
-1.5227082897878486,-2.553344258680519,2.2385099855586255
-2.97305793475771,0.14265261652382394,4.290589582895833
-2.9847127426163875,-0.1718725009434194,0.2936861103294758
2.660545693541625,1.3698544309206526,3.6770431622087196
1.3574968668074023,-2.6738957817830644,1.9446658242704302
-2.327266415336148,1.8148959033017964,3.7514241878127152
-0.368034008966953,-2.9740701456622594,2.2859524655717705
-1.9192809855776896,2.275862446636464,1.3267508101319576
-2.9131135329028526,-0.7147372304543879,1.2879963163399673
2.6301692176093687,1.3402263430676638,3.4478871419270756
1.2721077967381043,-2.678287009757787,1.8759524930990323
-2.8813597275568483,0.7086205852927111,1.5943497350542224
2.9196753380638283,0.666939521799719,2.6472183022847
0.0073203805894466525,2.974870279243701,4.126462929196363
2.915195906227772,-0.6803617148293671,3.73189850940173
-0.30118150493788326,-2.98415159712775,3.153121219946261
2.9533020999817645,0.42551139969954643,2.0109900409513775
-1.981370764207326,-2.2167568038347594,1.6044897636678834
2.511564836941978,-1.587599528513136,3.5802222245669526
-2.9922120948825626,-0.08224522219049989,1.3438453628159164
2.4492535971622984,-1.7027896618972373,2.675322304851808
-1.6128921975861386,-2.491123997584406,2.1686090940036644
2.045674698972985,-2.1879894523927037,3.4436176393611206
-0.4613002736587646,2.9158510850126973,4.283245281260955
0.7225506863422132,-2.8638055584308217,1.5028312945523807
2.8302022954741606,-0.8595959697033808,3.155053470792283
-2.8481182458125502,-0.9241363323101922,0.3023456373044181
2.982494580607509,-0.1316013274501235,0.03102279445571121
1.9390881268635538,2.249543755170639,2.458438877183722
-2.8877901383379,-0.7543686682656363,1.0502422043019
0.433782077928158,-2.9347149760632973,0.541923816592958
-2.8613568406565313,-0.7701260620362633,1.9836866050593116
-1.1735677641527966,-2.715977590416794,2.750604012917379
-1.6207310955470025,2.471542001188948,1.3051179534926156
2.3550480914372063,-1.799813162760246,3.690368889107418
-2.960515017825556,0.10504691369993784,0.05197556246896495
-2.409341063742506,1.7504975052697545,4.215983384442399
1.8626047335879146,-2.347010001816206,1.9796363004019957
-2.986285575527903,0.24124593861097426,4.9020939834229225
1.6922476475696322,2.4207322974710674,0.6805207091185023
-1.6192526104330336,2.485031915696415,2.6304640961240153
1.6561508245522825,-2.481217052505585,3.4517018906507264
0.7380678256534666,2.9043273880083964,1.9001169482482534
-1.115276857140866,-2.779771091128174,1.2813548112488427
1.1067117154883739,2.739588126671743,0.6676999087566515
-1.0502113442847179,-2.8065598803837815,4.895248107297683
-0.01334775066411499,-2.9919079176809364,1.0065042054005569
-1.5846726537547253,2.521697180450094,2.476995081445944
2.5232762660028403,1.5574200211989424,1.2148719713698135
2.551325159853872,1.5703242747343609,4.702689569207157
2.2864662881683304,1.938316935469487,3.95429971877303
0.8044639703937889,-2.8749253380245254,3.3018352011394296
-2.7755240222453708,-1.1009948000006922,3.007822649600846
-2.792652705700964,1.0772888379079335,4.051957847769216
2.9714324753592334,0.06798693712925372,2.3742615794700694
-2.3467014670869024,1.8550590278940837,4.802079955243078
-2.715659049309317,-1.2172366585508905,0.5100589238416131
2.989147524384513,0.12977952962152298,1.413865658883922
-0.947535630354231,2.8141885355482485,0.8375115923745435
1.936654587538232,2.2734636938968538,3.5580494299038072
-1.220679774478033,-2.7262696013360648,1.344404564262982
0.474497515605111,2.9271438484281886,2.9860304654477265
-2.831419721626321,0.9405012917080783,1.2145631645846038
2.8924025623350484,0.7762828128293887,2.0190313392943704
2.543790165249194,1.5373816529338538,1.5972256277072083
1.8466303082673907,2.3271631350742306,2.5593710777582537
0.22846595357808644,-2.9640074881970637,2.394629365259851
0.09909563417474916,2.98216490233897,2.6425254677948473
-2.6647897754299392,1.3453731312692752,0.9234593436087923
-0.4583956073767894,2.9525646033245923,2.7362390611190874
-2.975734377969122,0.33351252856095337,1.6326304126409092
0.5737175207631904,2.899419731675362,4.9534729474988275
-1.7620455595059308,2.42559305646047,0.4612462320983235
-2.6471341729621884,-1.3404418694578517,2.088793742884434
2.9121062784340177,0.6630284212228366,1.2791438109415716
2.9169924742487607,-0.6775576551569711,4.051367781521739
-2.7549930163354643,1.1291228493411845,3.9556641823133742
2.961081075282032,-0.14260606297278935,4.705920942635358
-2.812459850291614,1.0372827945624896,0.369315803444184
-0.5983676679810466,2.904612539724143,2.1156349967404378
-2.9377854953261817,0.6055916620295649,1.1838038033923215
-2.7509784760659883,1.1243538263288628,0.29264742131936083
-1.7540757491527568,2.425349780279999,3.7239750549735025
-1.7753782990642266,-2.408848617429879,0.7614423532850129
2.71960778465385,1.2434955200319802,1.822359375492388
-2.613320297350105,-1.4496415603650628,1.3954301979702977
0.32955072714264466,2.958439342733178,1.8085461072661162
-2.5153666769438754,1.5643619257018342,1.1903312811420885
-0.03358564072986091,2.970117056264074,3.07958824775932
2.9212218925793634,-0.431760958296983,3.821317544996732
-2.9085742374105172,0.6392600522231864,3.7783346861217715
0.8611644496065084,2.822687513059353,0.4715993860830675
-2.5447199716344704,-1.5123718128478743,1.692906116387964
1.545629320700391,2.5364824235429357,3.243008653328304
-2.8280324795478124,0.9754813861086208,4.198066847129663
0.790193739429017,-2.890854195337181,0.006296259239972901
1.5817575151357506,2.5207838967158165,3.819287443194302
-1.9665685284152745,-2.2142835048570153,1.6457881793183327
-0.7789410548372927,2.856466640121095,4.17680148946825
1.461353459529929,2.568434077345177,3.4089659939214396
2.701471196826384,1.2766157197856711,4.460858348930911
-2.679998956406864,-1.2767831865719066,4.919846859947523
-1.0889881867876459,-2.7809727559652795,4.123195454635852
-2.8167458890694066,-0.9734472697923076,4.4747613255426595
2.5795778244998977,-1.4714207348050146,3.320415122219911
2.0688169981185234,-2.158577804180929,3.242205464258486
2.6548441461227545,1.3881448276243238,1.2174343087699908
0.1564430637189326,2.970272713321612,3.9854268587146437
1.869711149329377,-2.3154465178158836,0.9305590176419365
-0.0006277096667197407,2.9792376251400707,4.240315321178961
2.432100371975025,1.74513325840896,1.0786242134469848
0.2036617626125545,-2.986173508661751,2.061393269006511
1.339295449880666,2.639601971234823,2.50177743581843
0.7277934740766547,2.909359224247578,3.7923787237385826
2.4436727235455975,-1.671496952819249,1.27231836181111
-0.9605288288164372,2.8058225255086486,3.714942286523122
-0.6247460926769466,-2.9058359052454685,0.8847415005646753
0.2290070581280817,2.9561826030909217,1.6305344348690054
2.9569036318052704,0.008239449374663983,2.4997436225148166
-2.8734643704658795,-0.7362644875792052,0.033646136512195945
1.3398765917561573,-2.6796632112779446,0.4202470994519364
1.9169541070033578,2.2538417410318017,3.1237932183895865
2.6613110303808383,1.3795077816184136,0.06684731033929192
-2.4010965114003606,1.7196952244166301,1.2541792051398826
1.1272075230082663,-2.762442404183799,3.9159151960021337
-2.965621272899957,-0.3777436079955177,3.901928177877781
-2.685037875582286,-1.272711629027627,4.424824094132973
-2.8894406622236537,0.715243685689059,1.2250502158377874
-0.4782876527886849,2.940914874741431,2.2173617824025342
-1.6824909836739792,2.4596557691772527,3.147148621233228
2.8325392498843276,0.8827286772099519,4.014794958328412
0.1130690055197275,-2.9787107874145007,3.119231714745745
-0.9765985732421826,-2.8130127526411117,3.8514935279169116
1.5117401567699589,2.538500259493022,3.7620004592960967
2.2000767727671997,2.021512216273592,2.146155813965294
1.5465511782884884,2.5504988940587943,0.4533684756421785
-0.08639947571229122,-2.971211125720474,2.446262097362608
0.6424529229443781,-2.906364723139612,2.7277739601435167
1.3640046322938693,2.653534747571861,0.22910754774473518
-0.5673843521158572,2.934454769286237,2.5200978295197696
0.3592939688557716,-2.9391728603501086,4.3670517777344084
-2.8164090690207595,0.9120712429608868,3.824840211441587
-0.6812767171330186,2.9118413553794347,3.6543146905884756
-2.0910543348787036,2.1118017484043836,1.8199079979003707
0.11914038552183864,2.988728766367603,2.10242255313066
-1.4751602331419231,2.5783787639131,0.7970026001964664
2.2562530459744927,-1.9350202370162228,2.327067501422074
0.2694393653649433,2.941883526155834,1.4394165505506973
2.2725721172963866,1.9180252629891617,2.7015824680581706
0.16035379574451708,-2.968940633221205,0.6369275643441419
-2.8897684074110477,-0.6875877662132617,0.21954424178775522
1.0503889549825975,2.8086288429244903,4.451720649720572
-0.09169635278736635,-2.9769836447238514,1.4550583972150903
2.680806695060463,1.2906370535179656,1.118082360987963
2.97096821617634,-0.3902660939877745,3.8790448342220136
1.866134297462706,2.330948065458804,4.533046000539795
2.3679537448821164,1.8224289156487699,4.471188614223776
-1.4809730266667152,2.5877223697580205,4.3789448014656225
0.2245285155555196,2.961407684633085,4.9868376591997965
-1.2829459847584173,2.7048104819796883,0.9397857551597383
0.6242206757170847,-2.911557248364813,0.5706023143309541
0.7225627874386027,-2.898370063531824,0.22045798321820853
2.429625187878967,1.7409733047973455,3.7743006210544117
-2.2961155495882744,1.8544263403650278,1.185793708022242
-2.3551375195616755,-1.8543074850055792,3.1696444465606186
-2.6001931777616294,-1.4420532354041258,1.94509167595512
-2.1652188627708093,2.070847088408952,2.711678885232946
2.175795015312295,2.0532792994070515,1.042833773283799
-2.710449941778796,1.175403621487973,1.1388110213237708
2.012277653061909,2.203625459744757,2.335942662887836
2.5981455312393518,-1.4217627757652158,2.074228554356561
1.1597425840032487,2.730718177592444,2.3372092392716897
-2.3588909473575104,-1.8121286992703776,4.646925341061633
2.8571438408929444,-0.7880194015344955,4.374685572545095
2.9512797304489067,-0.35329336213845625,0.42473346939044254
-0.35134369470339205,-2.9646400343157167,0.3753250214803966
0.9049078971716424,-2.860188391057425,2.281265750736609
-2.4679333054954378,-1.6831000438097095,3.8054922660198502
-0.7726390704554914,2.8678177367973814,3.997597141485091
2.487605817505164,-1.6572161519328927,0.5184053507343012
-2.679170727493354,1.279159649608602,1.5053043323583077
2.6900659484819176,-1.2193905561583842,2.3031847456065453
-2.986127038737221,-0.1182645329679372,2.6484662594500423
0.1834144060361348,-2.973442455002089,1.4673127493633924
-2.9445930484578726,-0.5402847054349823,4.694725165819586
-1.1056224165948592,2.784763675459933,2.7714730185694805
2.7482358671363203,-1.1182888159287323,3.179230721331743
-2.6186066688909686,-1.4570834784926232,2.4624616696133304
-2.221136433752727,1.9682097721678518,2.4664930694084166
0.9240204261945872,2.82586217361955,3.15444701490377
-2.8779859113316424,0.7090116009737496,3.15512873183283
-2.5024093880295304,1.5958693523154148,4.526225415659636
-1.6860647166825733,-2.4571319846307667,2.519092874440349
-2.940700027234014,0.2695197258928778,2.520978567768915
-1.4568069224824314,2.6206631524208537,1.9639349580327363
-2.9221253629544943,0.49280403127747013,2.917040313625583
2.9545053160769283,-0.346668429834432,0.0394597333711022
1.367022594259477,2.6392906860822083,3.5407868333560613
-2.952971068993472,0.37599288344930965,3.9668452267350967
-2.299381526542229,-1.9157783556933459,3.847623650435535
1.7917449384673159,2.391310100927928,1.1905974757639093
-2.7832379950841166,0.9946138707388917,4.539215784664886
2.4878677903854616,1.6197444823120835,4.993294884638959
2.8754164925521644,-0.7577680577858042,3.408187375469261
-2.9506978769353256,-0.4321205590640884,2.019489140268011
2.8688123740157994,0.740424454110767,1.0631928383874378
-2.5906384324955294,-1.48164824846479,2.8711947110762823
-2.524223594013044,-1.5442290800334255,1.9420680156562986
2.9677314776064905,-0.15805182689181732,1.7207374270536824
-0.45122039610029185,2.9265084002918385,4.588439075501293
-1.968065651194102,-2.205443658517215,4.053184280346389
-2.964450618197012,0.06625400466568562,1.7660848852893345
-0.45956445189145995,2.926746447347877,2.600988601513401
-2.352784488083193,-1.7925948263777267,2.357892520180857
0.05085803884975415,-2.964299013026649,1.9874244031208415
1.9115445414302894,-2.300864216912648,4.196551716685955
-2.892513381144421,-0.7889617920795041,2.9997389573948565
0.8527202628487641,2.8256445626427955,1.407820951213055
0.18775731989139952,-2.972576512833488,0.7163997194684324
0.03369150896364884,2.9922644189614678,0.6623634448950511
2.3713740841447355,1.7863014157492343,4.323943736522247
-0.05270696939298435,-2.9900423408073595,3.894447484827463
2.23934129585709,1.9225559208659413,4.969700687149235
2.564109702185751,1.4593641294322075,2.6776580219265727
1.9196192261045504,-2.2625647066108647,4.045727132040494
2.975531253026906,-0.22815422386321696,2.7098481077926295
-1.741936786751978,2.437397144780062,2.036669057451876
1.645657752377814,2.4901178152803407,0.1286122361159281
-0.22929655218751221,-2.9507653339310513,1.5579609221512403
-2.6682822646491906,1.3326040753727837,4.70540111338014
2.737666520279684,1.1576219481207328,4.415693962333323
2.1103529118385334,2.097279005145767,0.33620193059049674
2.9295453717315154,0.5379411497548365,4.4534866529742
2.0654004794844463,-2.1470969687045227,0.8601609396006571
2.9025362906448025,0.5424611727438078,3.583704608606459
-2.924048630012457,-0.4495906477346763,2.1603126190213833
2.6416744465305,-1.346987094171206,1.69671884032348
-0.3477752988360332,-2.957171932246956,0.9475864071890422
0.7202990592792377,-2.8687010178706482,3.518402703964645
2.7541445813223064,-1.1042959879917922,2.553098563238167
-0.5311894022739956,2.902337300684076,0.025543411823170104
2.7169556414467997,1.254498061544845,2.9914962562177037
2.0223708061382824,2.1491045899010954,1.6005619116416407
-2.9010893279130197,-0.5696749817639796,4.954223347424181
1.1365487895716782,-2.728328382302046,1.2034271211520864
-1.7951975873079815,-2.3476032799906714,3.687164786871193
-2.551982655309586,1.4972449294239016,1.6817822647079528
2.5982846953859626,1.4059365169226914,1.3349444124555028
1.5694763857799205,2.499473890931326,2.4595117455983004
-2.920774166654095,-0.5687898722084235,1.7289542821142245
-0.3749557061497316,-2.9442354535399704,4.045724132420539
2.869741554091554,-0.864354916718486,4.613753601973643
-0.8400678495760953,-2.862156207521723,0.1662047877615641
-1.9582099989631,-2.259912376773901,3.5135225803143384
-2.364742419569079,-1.845441767483794,1.8838532900553524
-0.5641469682579279,-2.9123841890353157,2.2561117638935517
1.4698336284179394,2.5586061285369954,1.3776860287647579
-0.6389998078145447,-2.9126063664935926,2.184394173711558
0.5709761603331182,2.933811697324673,4.201878580664885
1.1634759257677663,2.735382019587813,2.3468731743012405
2.93046863156947,0.3400319773769651,4.9082914259512975
-1.6913982194821866,-2.4478534168741124,4.408141576719171
2.9676662040545465,0.36404640677894545,4.2936656021385105
-1.1887916678868489,-2.713944671170951,4.443332746899253
-1.2082847301596746,2.706954332763226,0.5757527326605599
1.6281308493781816,-2.4985644775186726,2.990209299715069
-2.644158241132057,1.3379900989755125,2.357864146223314
-2.3750856620372396,-1.8284922117878393,0.1944003214169776
-2.740323282833715,1.096841760419674,3.9884452715339105
2.4161113317753293,1.7399873028847073,3.680712202031552
-2.383712179511081,-1.8032223217839463,2.137377282314184
-0.4790878768216961,-2.917247201673218,4.474319730009984
1.314335481494979,-2.668426239474821,2.288672846815643
-2.950653871206779,0.14580374136580979,1.5547979290487757
2.53721371755296,-1.5500862937500706,3.883354484880814
2.8559389336480687,-0.8031977765662774,3.1922088137477322
2.9566304739813924,0.22478272583938477,2.2919868085141437
2.7513057356378843,-1.0733221906084538,2.2560348134675463
-2.933580998935992,0.5818262934166912,1.0022863667958481
2.943721108240775,-0.21425333455831538,3.974140523144591
-1.8593693283043593,2.329823587358088,0.5245540515829589
-0.6333175003592397,2.9318490023964943,2.320760760927273
2.210535760683892,-1.9616348066359355,0.3098491116239266
-0.31310522449863776,-2.954539797593182,3.9143037027752143
-2.4427325639967363,-1.7043649600645467,4.602573385748172
2.8107122449174122,0.9047909510688612,4.540256736157243
2.6101086249850245,1.4215672652141829,0.188653209515105
1.0195335966349917,-2.8046626040533607,4.851550442427376
-2.6386598071444505,1.3991477120233398,2.7581062559482405
-2.5536749746962766,1.5104283907056901,3.799618870905986
2.953913075225802,0.3896727034983846,0.776517174357772
0.8357062952253224,2.8646733545440686,2.4446706394362447
-2.4465557632351325,1.6668473959989552,0.17905121483237751
2.467888607719572,1.6926339620106678,3.1773662410537042
0.5492234439809598,2.9330282445301776,0.7959478610184795
-2.310500110559621,1.8496707319284666,3.0776250232793685
0.02747804216435488,-2.993117802927896,0.15643924177952573
0.2217987012978597,-2.9479483816575334,1.766809353865454
-1.22084813625832,2.7091293405381145,3.7796361969635397
1.7500758388338435,2.423142909063808,4.68444138523259
1.3093108036680927,-2.6650501959165998,1.5893187116246366
2.966136608683169,0.380688689589535,4.355143272297066
0.5437676884135512,-2.9234869936985723,4.861700644075999
2.7645975038001405,-1.1356716524529566,2.8828265840303624
1.7380975327280292,-2.4357424165320536,1.0161406014991963
2.1403726067193225,2.0367311949120603,2.839630978172789
-0.47661558017200817,-2.926890436022617,0.7936789804333
-0.09560702526810404,2.9878115779017755,3.4507163074922387
2.8033395092789744,0.9361412080029274,3.9380812289186284
-2.853510164085049,-0.7865170559700555,4.43942339499321
1.6823258643069925,-2.451459749981088,0.6781138939715942
-2.945583055989634,0.3718368715615822,4.6210143367755325
2.6185263254459814,-1.4149513818860318,2.684482148289424
-2.202693372376072,2.0011155003035537,4.454826580543806
0.8339083653333024,-2.8383660830115107,2.207545167086482
-2.9802034016107104,0.12441552988897225,2.507550654382913
2.988981455913973,-0.10583915226585378,2.748498515624247
2.9284166116913317,0.6312835383114912,4.809562949427426
2.5358460850554634,-1.5560734062116528,2.523527033560039
0.9628864576004303,-2.830518194014205,0.16805372255303763
2.951833860058398,0.04568820030985534,2.8119614698243
-2.855124417798712,0.7740259508735746,4.409668005487968
-2.7544588918367725,-1.102025779293709,4.013065372331564
-2.8373559811809015,0.942594549585082,3.226495339646975
2.5487932163592038,1.538805312560904,0.45178392241380205
-2.926294488682543,-0.46648789396808155,0.5350646605126741
2.2984710583393597,-1.8599759982090582,3.803169371214623
0.15842591682595725,-2.9501358008934337,3.80410939646318
2.9675083817059016,-0.2903566426757511,2.9318067397942897
1.7856468564537376,-2.3975312988561748,0.13258981474767007
-1.7981017616170323,2.3892612789437186,0.5279865688614682
-2.3624151005579415,1.819793179282327,0.17836780411239983
2.074652750448742,2.127546921731677,4.314714691401314
-0.08682835595385746,2.998723697517364,3.8410924362305905
-0.7264596987763957,2.8619780381490214,3.2501216523816123
-2.6644813786409447,1.2725974019568835,2.5394669385702495
2.567181429634874,1.499575402467202,4.858331232051671
2.657593644517548,-1.3485888779518196,1.912471189519351
2.4747926659112105,-1.661964040222724,1.4741844639884665
2.9034260350680023,0.5368821976055037,2.839119199674298
0.4670482526555585,2.9463055605660182,1.15992743881056
1.6264067011137453,-2.461243409892141,4.372533944904158
2.829824026350163,-0.9775023863998632,3.124593588669434
2.5553728949530377,-1.5455313034497489,0.5624701983934383
2.884535589726715,0.6678622060807692,3.799666221163423
-2.829717040167305,-0.8448361812644304,3.9867056904238316
1.0748259199106087,2.7766672275223567,0.33451853380091545
-1.4161996003799413,-2.613383464882916,2.6456725727541635
-1.8952342263724022,-2.3002087861825617,2.504176358919516
1.9025353954482345,2.29651975129655,3.201856142711841
2.9450904979074517,-0.21039379418648485,4.057630649332729
2.8963278750304453,-0.7073895074088314,0.5082240645326025
2.6772239094535464,-1.3273194940571478,3.3087771721753723
-2.5432678152659602,1.5311076249257236,2.416782380561557
-2.937397773121189,0.34677429028380496,3.1632369168305523
2.935468701757448,-0.37145310895743117,2.9606758591028814
1.541078820865636,2.564191620443556,1.3776833113776839
-2.8412136142164157,0.9381326012649795,2.8733238084100816
-0.9349143805213175,2.835268685895255,1.2431338061980886
2.652939981718684,1.3456700847331293,1.0154179404158419
-1.5594409274970553,-2.5368294014032267,0.25555313247799194
1.6377220271423025,2.5077423601546713,2.3331004782247633
2.974389241408269,0.12391982521768691,0.04334483617961571
1.4147052253636188,-2.603798242756905,0.627909080603859
2.9544159278862314,-0.25376023525521274,1.1404253659612418
2.022301458915046,-2.202204147809813,2.9232084718346303
2.94605088585847,0.4639036048658553,1.7113101654406444
2.1638512576338744,2.0582998026798753,4.317863333162356
2.7212359529550785,-1.1856327116948628,4.353565278353428
-2.881072030623589,-0.8213730613668863,1.10519843572289
2.958231552923789,0.14353960027304305,4.013348717953588
-2.9437454945583137,0.38813934857198334,1.4323711037019127
0.5582294864102296,-2.9438608787274876,4.924409026617534
-0.4061012022830518,2.940103497255443,1.2141839004190484
-2.994350097743057,-0.013611002972154116,2.95484856568877
-0.07960681796366699,-2.979989579328807,3.609453655813719
-1.370939840048038,-2.652715137582544,4.843301874780212
-2.5807241366074103,-1.493302603981977,3.8348739224325117
2.5672908166797312,-1.543664895010724,3.3395140942087718
-2.682514096555884,1.2530050352935753,4.515180884244194
2.9932206092699136,-0.1831000099086475,3.691263651187804
2.9473540669405067,-0.1455627444158761,0.9617969867073523
0.035120021153960373,-2.9509644821413166,4.854957670223519
1.9314816091985627,2.2690741892192285,2.885703749875423
0.09448152540002608,-2.978242231220406,0.6590024902514524
1.0691694132502136,-2.7839867345077858,0.836933697760216
2.900684244338872,-0.7405942403305856,1.2119112357823307
-1.8370257549354343,-2.3167365081186437,0.5420505043090701
2.97377468678656,0.15825637416723878,2.221910260304597
2.6381862730161623,-1.3210212336929483,1.8612742282673223
-1.4705950340364962,2.5770870208149628,0.8125572927438696
-1.4073771300009015,2.644320283149276,2.4720382239179948
0.6308073711319334,-2.8878916900376015,3.8920085499289288
1.8927801749887139,-2.2999184745827845,2.7912870237114387
-2.799945348574722,-0.978990045765292,1.499794474602016
1.9615785277745101,-2.2151217617932453,0.3792750674642209
2.129358772829493,2.0955611556953855,4.369957134636066
2.7022651685293195,1.2653645141295002,0.523785861191382
-2.7339783710128467,-1.1487735714906038,4.4304021809297325
-2.6761192308544337,1.3402058793543683,1.6393677135847762
-0.4827936801187189,2.9216688350393976,2.8206062335694906
2.4786044708947466,1.6518403336006366,4.211097952727974
-1.1479466725233831,-2.7434252831733192,2.8854390070414935
2.918538359869543,0.6734669402754496,4.222557241938253
0.9846075033909855,2.805537315191562,3.0507432341241216
-0.9535083091483361,2.823547320468748,0.2537564362269612
2.0562064275550265,2.156319253554297,0.6360619798526457
-2.7527610620409066,1.146675704557292,2.1372464803260542
-2.9611987897435075,0.4679376284818825,1.1653376172558039
2.9337284792908185,0.3142439252215304,4.917835798213506
-2.136557955530978,-2.0980230986631074,2.11810513645422
-2.963695944086624,0.3274603859174244,1.6506027707001407
1.1274558323497836,2.758430009194335,1.5238389678362507
2.825206715966554,-0.9430487240668444,1.5032128685033441
-1.1780047182914932,2.7214817922749455,3.3029953207585905
-1.7850472762281762,-2.3819787156996957,2.0416359227776493
2.9256949720915664,0.4575437802960841,3.3973792272499415
0.9078992115154018,-2.8221231122988937,2.9480895703007484
2.9061903187653693,0.6385782382393634,0.19648375820046693
2.518412908924008,1.622750577075815,1.2401049259824588
2.37743094736628,1.8172719679845208,3.011556065329464
2.335730977801642,-1.87070131538275,2.302823832767319
0.7064545097683902,2.8809229172575215,1.5104819423316473
-2.466708360597344,-1.651181987059599,0.6922496278921775
-1.5676078904926467,2.5278129588938465,2.8438963045689745
-1.649029786739313,2.4842928052407798,0.10696926573430576
2.3124397228521856,-1.8458574142035244,3.696896674687868
2.9217483108026525,0.6274636589417961,0.20124644653268908
2.5939540412947544,1.4984866687771103,4.478961583006774
-2.7235453715911757,1.1720097612824876,0.3248107140061779
-2.948809599282409,0.2575373440821681,0.7643706388926058
2.4910821366829214,-1.6052297589569084,1.9411029672253162
2.7862297919290144,1.0147181424287708,3.681309764800919
-2.76920983661931,1.1016241058933087,2.8389160914205163
-2.8956346498644496,0.5680670437676067,2.2252909327375447
-2.9401170132636607,-0.46147996667367536,3.2773493212856613
-0.3302781089821182,2.956090717050015,1.72855462185174
-2.2412475614749323,1.9519704868293222,0.7751989285998645
-1.078056460738366,2.7479369635746553,2.728196184508003
-2.836892499170598,-0.9457292435394855,0.016788593255553375
-2.014376119610526,-2.160212873983946,1.3949563208199622
2.3834362448288626,1.802903227228977,0.785745120281709
2.445021831884531,1.7105419332458036,4.990635936661995
-1.9315570127022652,-2.294289355265969,4.268885633323361
1.0247097252575446,-2.8011220376409565,1.408068256795486
-1.8550413344729013,-2.3176986684280223,2.911527531869874
-2.7318614340032625,-1.2166449746096832,0.12292345895279
-2.672136488606959,1.3350861920417367,1.4917520737106993
-2.786063210485165,1.0263392227505816,4.606682694208526
0.41582849365544433,2.9558507092802135,1.1238549807171343
2.9818683274356594,0.022702658673631682,0.6998656243287077
1.9789996272049755,2.230086211701825,0.33075930199846726
2.9404015492871767,0.3288861573028475,4.054103867300591
-2.9546051127634794,-0.14822951904918846,0.13649976438063982
0.7010182725340833,-2.882550415602477,3.840504541160061
-2.8999916552117337,-0.7160371409480881,3.7119340046625737
-2.675551474035061,-1.3538483514090622,2.5529898978050243
-0.01720377612088431,-2.984434447857577,3.5432626949775914
2.5567679765591733,-1.4831452446930857,2.5109601505720303
-2.1474456450060435,-2.09358173679315,3.5798680754518513
2.9663565586484655,-0.3543970373101697,0.3233304177248708
-2.98318259333623,-0.2561373021533518,2.7165508057542804
0.3445644763597774,-2.9412962483324945,3.5629325137128136
1.6226538917004583,2.4727119218702556,1.4928718963229104
2.909570244089314,0.6315724252303712,4.127246233661363
-2.6765664404379734,1.248323935015107,3.062671375208031
-0.5487971499990536,-2.930648318340718,4.475888301383881
-2.496572979926011,-1.6099594882194626,2.03910898534658
2.984836176205641,0.21995185897551225,1.8984594675604993
2.9081969083201566,0.6142810655942637,0.9959692373022055
0.9931252803805986,-2.8012437958685643,2.9302707775621855
-2.7819011589535236,1.0386220612236794,2.439741340816624
0.7422713234702129,-2.866651579221537,3.236925781254171
2.5677508076423026,-1.4592494891189711,2.47736072221623
-2.8463730377258223,-0.8334020544707812,4.4830626986916915
-2.173032442152919,2.0025965629831988,1.0927270724264082
-2.814905539424646,-0.9266735835956653,1.8114029761124861
-2.969499840329015,0.40464909814801425,4.482451869286996
2.6912410109460447,1.2650573823912832,4.608888637594878
-0.10835903587384632,-2.968114575139589,1.1430358921743178
2.6962052504059093,-1.284221561474301,0.32369361225136173
-0.7504119176131432,-2.8629839550600447,4.115994618111225
-2.9099113643021814,0.6728402258603021,3.917488150876527
-0.4376097980000821,2.938417254394557,0.013549312674143721
2.76148055436787,1.052333069037845,3.6622886932896606
1.367891445306259,-2.6528139398964523,0.9281625529603854
-2.5970466462018296,-1.42914352553147,4.4017592656326885
-0.5248028689802854,-2.912339728630366,2.8857624718416797
1.5065303143832938,-2.5507632021136795,2.86057408003338
-2.728965701179712,1.2272505072665656,3.0409318092519126
-2.9548667726430735,-0.1746278745723245,3.688168466100379
-1.7940693019996747,-2.3570845857925242,3.7162876927001625
-2.4178188527559374,1.7734787574315787,3.673437811453013
2.1888365108020906,2.0407608929524534,0.8358438049828065
1.9661461469308237,2.2305525176170113,2.827606558036944
-1.128043944828395,2.766268208272664,3.9643695522074394
-2.985322939584408,-0.15634271251026668,4.487772965528015
-1.554447307419072,2.52071325306699,2.3693151128746273
1.8407126063672867,2.3287838052925998,4.7420185798619565
1.6128426932115087,2.524935015404189,0.8545943960509828
-1.7415366075016518,-2.422305565548234,4.627379604143587
0.610972361428952,2.9320429660196172,1.521859388634343
-2.4849235420912144,1.6666429088487287,3.2440799954907513
-2.909711907196829,0.7220470241388774,3.5952629358943695
-1.1645910152028425,2.7200424788498934,2.1513084250047414
-1.236322861766138,2.7103015317929287,2.490826458463322
0.753964698300698,-2.9017031531791573,1.9978849890789152
1.6697666203880728,2.447429765715496,3.260600128819355
-2.946555593318166,0.3284738703533618,1.1232980007158382
-2.839911883330205,-0.8914118418808049,1.9376397382822845
-2.8591481114433384,-0.8963579573455209,4.140306271543984
2.190093787062215,-2.0342656174063243,1.1930763727095794
-1.4035354204642776,2.621122882977066,3.4081989766657905
-1.7914969843011939,2.3682914578070604,0.653544935339212
1.2796039741570806,-2.700901146495439,0.41570287448376597
2.80607719205075,1.0420239145471413,2.2500111555742204
-0.2574417527401864,-2.9538589328342275,2.79021678946358
0.2975730150805748,2.938479277170969,2.3244462883813455
-2.964124336437489,0.3867816498712912,1.424130751976107
-0.45476402342664834,2.960024628008134,1.3600229086778364
-1.1219319606899136,2.7418422438602805,3.129818266846762
-1.91279000101186,2.265594451041613,4.59188956315259
-1.1761078128335096,2.72369060281152,1.3226887680731632
2.8012409401177547,-0.9548029813396032,1.057947063438982
-2.2023524690159633,1.980678497044826,0.9434614352106163
-0.12036240763287662,2.9943953944451343,2.7103559096635674
2.9575627254853734,-0.4645217110270777,0.9034268755191888
-2.4240035353303244,1.6938975373704643,1.1274424365334101
1.620459796934863,-2.516272265621324,0.8668997574906478
-2.582862342352106,-1.4647749606273355,2.38319866980203
-2.3974547727044357,-1.7968322023569065,1.4807353562393093
-2.9548623226659956,0.19227169845071412,2.4559315733579568
-0.3883923662046149,-2.9402297337661203,2.324505817653233
0.5118941597390335,2.925299710460337,2.681371719759813
1.2896718530591753,-2.66233167894618,1.406349100952979
-1.720513983198055,2.4446764248031014,2.3420779279917934
-1.3042312879777507,2.6858252841768473,2.0609857696979055
2.4718149922431594,-1.6624239738002369,1.7336853964964076
-2.8803554815875616,-0.834224769124851,3.7969927941104755
2.7831204184181475,-1.0651000307539955,3.120104862643246
-2.9395811665889804,-0.4725463734774763,4.613540189326918
-0.9630817449690332,2.7977892757994023,0.4984964373114553
-1.820967275277234,-2.3268383460400344,2.112427168305837
2.874229277532349,0.7864277833934286,2.5108857341431152
-1.3823184208367456,2.659386167089584,4.049589030538198
2.881508212459389,-0.6645417882799765,0.39351803251062356
1.7067152819179077,-2.4619979692175793,2.029609803973042
-1.3884833594635833,-2.622273290088282,0.7329449424460066
1.912332161313314,-2.302865259147369,2.5316886487011434
-0.8132186185189744,2.881217726123013,1.8360785706159994
0.8166936309898707,-2.855367750283591,2.4612484619043458
1.448402041399218,-2.599573911152869,1.4151058912891878
1.8671346600193772,-2.291165145387409,3.6916235350589846
2.749582514675963,-1.0878470905716944,3.524023328020862
-0.2775908622036177,2.9692257864754055,3.412103705756329
2.5577968311533086,-1.5420729045394543,4.110174893394162
0.07064558124739803,-2.9849140025726646,4.314095695450705
2.7701494173754098,-1.1467885415383232,3.902062597475126
1.1827822260797938,2.7333448001275826,4.442275523981863
-1.920021377338809,2.2671753075679306,2.236957597027804
-2.8659743106345554,-0.7718937709808266,3.8851565427335473
1.466877710547047,2.58531929140549,2.50396283818984
0.7691359507989525,-2.8972347622153025,3.3776831055805934
-1.8296972800237774,2.3221892784814306,4.031064518695962
-2.9444647022982635,-0.4045215451558909,4.531356005758134
0.45317321547458694,2.9227719233534155,4.782763075047039
2.639349329127792,1.3366440358752845,2.2300116606809968
-0.8506461966604985,-2.8722674289383656,2.203618128907742
0.4620659669950527,2.9269405794789343,4.50526726580255
-0.049940337849951444,-2.9682869247801125,1.0677798233638942
-2.8447377203877817,0.8522262041704644,3.94318461203125
2.833614672256469,-0.8788236795650803,2.923871244946006
1.6568142972297177,2.4806556566826483,0.45493299799456377
0.13554395422458906,2.979992578338908,4.318203092105764
1.3695128649267974,-2.638849859920255,0.6085541811525552
-2.0004017162542516,-2.177883595394484,1.6289058717943283
-1.212889889013289,2.698675027682645,4.880594387498802
-1.8979096863693476,2.301803410126688,3.7035270694758355
1.9276808256374633,-2.259453863837019,1.677483283865241
-0.16442458294720977,-2.945709680561158,4.880246367570723
2.8810114530441653,-0.6533545416232789,4.808148312368798
-0.7212761240109553,-2.892600558649074,0.8528851600441628
1.5189054273584415,-2.5861048070600807,4.252180658575633
0.6972695676041083,2.8709425289054873,2.6842499710496224
2.9512268100234205,0.18184761214047707,0.817699726831892
-2.5435671231765538,1.5206751057283776,3.160711331202491
-1.674528854543438,2.4431181092187404,0.5788033841463441
1.093077490502511,2.772592060865535,3.616526540333175
0.6166480676245388,-2.8979048850592912,0.6817308544708217
-0.3596564139976535,-2.9728603547914876,3.625801161015316
2.323583939751764,1.8383561216577649,2.559351265167476
-2.2110468792963287,1.9807788825090946,2.2364465658167507
2.5863851345160316,-1.5141548744976612,3.288497045248554
0.758813623323843,2.8763767912293448,2.6099415848493885
-0.3660062908503493,-2.9475945257002385,4.477057999370791
-2.3653858707249182,1.7878733120850454,2.048151082271325
2.4310843678286,-1.710759242536295,3.7779026068531376
-1.1266574127099604,2.726394725517902,3.3646328579303573
2.956996337467036,-0.4788569763191204,2.6299352944117182
-2.9476114704426983,-0.14338270034958572,1.700009136664666
0.6314366055763329,-2.909087942721878,1.2688396747970798
-1.353211369701778,2.674878762006807,0.5772927457458071
2.3231185682431166,1.8714314206815743,3.2864898854377573
-2.931083567027404,-0.3378923549014401,4.911431599780528
-2.894022067843975,-0.6155320165849243,0.740544704722878
-2.8960899808298293,0.6730604964185046,3.9964767207005485
1.5828598956581188,2.5197210959049086,1.7221350976891325
-0.15440519958040502,-2.9487991439008403,3.811585762878387
2.9578437311497168,0.38432113235467186,4.4423922456593665
-0.426247337661387,2.9612293371071843,0.05690635934894328
-2.1167353037693215,2.0822600877793107,1.0051526351256002
-2.169252969246537,2.022202636907311,4.771855894220956
-2.606342201558417,-1.4319550123264533,4.482138330572576
2.067902846416248,-2.1137905423841237,2.872118669809463
-1.2288637305014503,-2.691584340345259,2.419022746913257
0.8618665613205647,-2.8351309101919626,4.914095262600038
-2.9743419423508377,-0.07833467069828898,1.4050081520790174
1.7786486899685163,-2.387100763258065,3.721659754161484
-1.9482125416228713,2.2183647270675424,3.1532283359075732
2.937456191927966,0.4377698833867387,2.698036874292839
-1.224171835589062,-2.7136129464591954,2.015653434400082
1.6546434483466956,2.491820084948799,4.400398743441399
-2.1453237701551955,2.071540084706004,4.770049193740439
2.993943646819084,0.053165466271386616,1.1878085728973957
-2.741972555670124,-1.1558809259432807,2.7879120345072472
-1.6339626178926234,-2.500216510075278,3.149326863427463
2.770738246617583,-1.0311909002116442,0.1254664153973689
2.554326672273957,1.5699245975347862,3.5961118618415733
-0.025728814724109636,-2.997580521444954,4.39069170236777
0.5246041842951567,-2.9318777805532226,3.558713852423039
2.215778844627465,1.9669337339241546,3.86272066863754
0.49331150227491105,2.92450419836446,1.7368013299817568
-1.6468145697193401,2.50413381079228,0.36653259570196217
1.6149611613775896,-2.4752714962476237,3.241177023131216
-2.9172921554033624,-0.6626282245389306,3.9121060081555994
-0.8405858123496592,2.842938499356654,4.488454899055708
-2.3642005764086416,1.8349613903790276,2.901980670959947
2.541892346215098,1.5836155587514114,3.6745303745791302
-2.8678783513467057,-0.8750483897580058,1.999412334027434
0.12011037788511303,-2.971924372869061,0.472670894762407
-0.7613516251513887,2.8941183935300447,0.966831305323233
-2.2147355761373393,2.0046571735150613,2.3197150153577972
2.228237593351432,-1.960842973655607,1.2387953445304623
0.45458273794312454,2.9383715109007396,1.2045355745728037
2.954904219590732,-0.26625261699901415,3.8873743361485538
2.4598130426315987,-1.6585793799324358,0.946428733553274
-1.691888169373499,2.4299029841295616,0.596419058335777
-1.87727142982155,2.339343975317188,1.5464491800432545
0.8027464834915629,2.839120937174737,2.05321602836949
-0.7673227635799771,2.875274797371459,1.115687375949056
-2.2222137552382213,-1.9518940206467894,0.1662950094625648
2.7558712122974924,-1.1544846969915739,0.491826150670161
-1.6337328662819643,-2.5118604154963897,3.403313395891401
0.8059186128437097,-2.845933235590147,3.572538484655805
-1.3523666383212076,-2.6631819122661624,0.26960325802524443
0.6549038775892613,2.918901829692045,4.504491035525574
1.1080270437855457,2.7452737601080894,2.0906356271685214
-2.9633769309890132,0.45180908712563106,1.031888352509163
1.3801424252981889,-2.6102162987729773,3.4953315950885977
2.9030909201970663,0.7378477137541635,1.5519956676373297
-2.8638529544259965,-0.807695341539281,4.187542364305993
2.9126115892272826,-0.7106172245162792,2.525622023533283
1.8566619364246275,-2.3477282946452385,1.6875814725856335
1.3402604060491756,2.6610755305133384,2.7191935070173034
