-34.43111422899053,-51.95839246285395,561.9923489039969
-254.2115355143392,190.13111226613594,217.61176720067812
209.29800736947905,15.302854843876759,-590.8198709317362
-169.82544076330709,-84.39726454373084,224.78387533414508
73.7950681177417,377.8838401050035,346.5251886800647
-101.49461563943983,-182.57826901353775,-180.4042560523914
-80.664378128926,-22.827920394420133,-305.01425261604163
232.27145742096212,-19.413695940261352,758.8574292279035
-12.58500571506993,-60.68241350572634,-850.3400069503995
-137.09941988976234,46.52766010590522,107.12333733178146
-79.97854809934432,-26.674254566242173,507.773426322258
4.255159322018439,-39.726408227082075,-428.2395100486603
-121.12391066494352,150.32146610843904,600.6617054899369
-206.25301151749363,133.93207703965294,983.546058627775
-71.61159022773886,-31.14038011883301,552.2661123175711
-66.22392723585858,-111.51296421604633,-313.2286477232612
12.17117158147778,106.65195500350175,326.0881599290018
88.27207586161876,-184.65861447561286,-552.1132419157005
94.05709516474325,-5.328471836943991,545.2767165271129
34.12404931733292,-138.87604565686283,-543.648136585685
14.30013569781115,-54.822353877305105,-293.31068961410904
130.7398880887786,-214.12557795011392,-739.8331674391843
79.27062886121618,-232.91694976957578,-372.1833375516376
65.5355248884401,-35.379325230946925,266.0580021421567
-40.38373819155077,338.98454325137277,701.0625261090007
209.77775850409876,-246.75811509520696,-28.884281445759402
76.42977448040068,-223.49275302394736,-349.00755040488735
461.00928610343794,-34.32581655256659,28.27738959961817
-127.17970345430716,295.3859790308561,207.87381437469904
18.649035529441495,95.51955614450875,-652.6230101188482
-421.88098159668374,-290.94237844576867,-884.5098462553096
112.834263875744,-556.0100336824886,-380.97656986079664
-59.984541267472736,-375.63833181835804,657.1376314335118
-283.38877654590794,73.817379201002,-309.65024605436963
187.8338566093573,-185.61430887589805,1258.0585349833455
106.68143040565788,474.81328856246733,-616.7641906440102
-212.45230260366063,121.59795631950541,397.01306096496586
-37.033205105726495,284.42240110018736,-527.1507775175886
-58.544558851951564,-354.20825333099714,-159.0952129343877
-80.40812456210796,-106.05080821160797,127.02077348522094
115.66046040776416,-199.01803356501185,-499.6456111708173
196.85680874081976,341.61679317971544,601.6149129624758
-117.70641125369244,29.023121966364663,-516.2347446704845
300.8202146644842,-225.01980258887056,-363.3794845433765
283.8740699272355,-439.0127710113389,242.91025458929573
455.74974815961014,21.203890995517554,220.33369677855396
268.39170425499185,219.09697348389741,-101.6257836660742
-199.2573573869225,-118.92742742401975,-979.9802887992504
-57.72257730677997,202.63675639571073,-202.5206430810291
22.232963012186964,-48.04216540085568,-1006.9345490422762
152.90078194062758,-458.22052976037895,-121.92099834926141
65.83303992008963,-261.09052368467854,-1253.9134925297178
9.661602730071756,-32.49894074943619,419.82647156135084
-327.0867407733195,-296.39980140023204,119.92710847708034
-74.45249638628167,-55.53917529774871,-915.5401702502718
257.4883675151455,353.17541336717244,69.98380838434731
-286.7051695869925,-273.34494886278753,605.0475734495981
220.5171548707217,-74.05304875098142,-1031.671800219654
131.5335840790998,-198.0787156137507,418.7087376032518
101.1630664859968,168.70310875244328,-215.8447382388247
98.30407801765823,-192.49444796347765,-423.76993435956945
98.13473478234644,-86.03105306103238,-899.119036118291
-146.72535901748614,103.20416779825972,721.8321242039303
-215.83192598885825,-283.7373025192449,194.0291222155784
-1.4456077772585643,0.06412068187049441,-520.2914613474637
416.7476814195147,167.14487790522946,120.77430799209324
201.029188666729,91.64271003079317,-401.352265189691
-269.6128503521028,-50.84455618732391,-379.12083860790415
183.61924332052953,40.27897542076641,-65.40574922219307
-103.59997903320635,-30.564121339116788,681.2661414579362
196.15745125005282,43.47675874847536,199.1264043121304
104.47965078053649,246.71797414190843,154.18928192899992
143.15478496420022,5.645236512341246,-108.69436185421335
30.17236308499345,-125.20662496270158,165.09914134057894
27.129910017398124,134.68504491563579,149.4071056930906
-82.78863078780799,137.11920855588914,225.62406837375153
-63.314637405224815,-311.99447414138683,130.39754561589757
-183.0103052184015,101.32794586507477,-94.03410159946475
23.718102634746398,-140.9718489049132,91.44806945031078
-132.87845917247395,73.96910033789814,-362.146486569181
170.87522088455887,-354.50195946785306,-182.04040106574394
-285.9643496253515,274.79797442334586,-394.27839000322797
-218.4155898312158,22.377199369976424,-251.93450549995615
-423.98936184665763,-106.7652594038008,296.93682770480666
-204.06964188312813,-183.59562994585602,140.66891674947894
36.879627004969024,64.94167161314685,88.7371275846126
66.43206401687667,-402.44029924045276,-87.42426388422004
70.07339870992688,158.24490533793835,9.08905895364374
-235.27537418302043,-298.2155486857992,-144.7132721825104
183.52522403565976,-65.04795997425502,-685.4891005454522
156.69361529102517,-245.1075594764787,329.35939779185884
-146.57389483526296,-0.7682215613629362,8.28349895285141
-60.99567791951227,157.56170260330694,-459.16360790074833
51.3383710331794,-476.2529006425458,340.3087472447954
36.94576679845326,477.4339992216587,88.58680437545063
27.249721071499938,-31.623020821560633,-374.64266799285394
-165.06121403744635,26.824692914533877,1.6658368310467622
-162.5987003306982,-15.62071275779268,-316.71655822314676
464.38161020930846,-77.98775110837727,905.163102289469
146.78994652461665,-584.001262046487,58.744950321303726
-70.4226903517284,-222.3385914176551,-609.5175726583551
82.99829624709825,-693.4116436868185,-89.97662495669688
-184.41587005854555,29.34462369734029,-499.96806418905027
-35.99621546924642,187.57682336386569,809.4784434922998
-185.3477779930925,-15.449991281294032,135.85126367507692
77.53461372155923,57.24561323857472,-950.061468943221
37.5187781537475,266.9352914643305,-1146.0171113811823
-68.65064774743863,-123.5968277090303,-382.28158556498056
250.82631108789064,-271.4004831623913,990.8862648674482
-70.66104425499309,-177.7309205245146,-234.69590569695436
-272.2490294933661,22.64901309804134,-171.6404312433751
-410.9043820710691,-125.01465433527845,711.6072697667889
435.2886646267116,-83.19123705104884,-43.293014125577976
-238.79561662960973,-214.1631737306926,359.54816158627995
-114.98739266505706,-0.3708521233289619,-168.5297512943369
171.35582377306355,-237.1517709479657,792.8012300462242
226.678251070275,-56.02264223454275,-68.69982630686974
67.83668647343426,-92.55067395667787,787.404419353281
313.6395589565377,-187.71243031564026,-615.0744488191257
248.2940719173949,-41.57850825264672,-367.1499094503795
113.3750943621099,16.871175588616598,1063.772638452638
17.649843855124555,28.490382953517212,-442.2045071636176
-5.277794421337049,95.07870018326773,1142.96483845462
-54.65162494623055,244.92306623394006,747.0929769397574
282.1775795802386,114.28067621775419,-168.59411162889467
-73.30614133585698,121.27979603919614,-407.51804455824305
239.69257138296848,126.85390271897141,-124.08762885258753
-91.80316901310428,-203.43271901307824,-717.6988820242209
247.27644028774458,31.3199252276882,464.8371631266143
109.85308204077685,250.58690171250225,242.1660631484199
137.74237128442658,75.25987677730697,-245.40110002512913
-129.06468109208922,184.2353573772267,711.4587637718604
133.87465337249722,-325.64362569576684,-200.21536764257903
345.04238138411034,60.04819709567608,-615.5933189807693
-46.21569010227172,75.44745322469329,515.5684916288249
416.08115558059706,-81.45868080355663,-922.4862476895008
272.55203392125924,561.4406249661477,-193.4393566534042
-32.8772804842899,214.79381618189404,54.51750617183441
5.55745292493309,28.778193278624986,434.7640093009384
122.56600700557581,27.735867294806976,556.2716716796255
-206.53220458260378,-497.3288687643587,-982.398346420767
-45.27366503683455,-179.51032245931208,1308.0050434576272
377.1797838495935,11.534228151053592,517.056981935732
246.84233956286147,-12.831282286093604,333.45920799247045
-129.19343783507614,-289.86615761810583,197.84063695759977
-311.81243160656044,49.67228515204785,-1389.5856811382514
-607.7916027729849,94.4536581455694,-432.87516845673815
195.568528072492,100.86067269887829,538.6216267332226
51.732948448304086,-177.79224265065102,531.2596860887767
-166.31590645235286,-8.511466628725946,330.7039690193285
-23.398936464941002,214.4588099195863,-292.0723813950884
46.3284142956789,-73.55315272455519,456.4437138784115
-26.585552018533086,106.09305881892004,-80.72344424181334
-299.95103218463265,100.0939381098302,914.3432675878063
-152.82407294935823,-217.86803851615818,865.9050590333123
84.67838891030766,10.52377134866485,268.90720874389467
-75.72227113958601,-311.3185498853258,256.54792465420945
-4.0314035397182275,53.175845675330116,309.35506865409917
-9.821423411897763,15.381814762565726,1154.2015842336655
419.66883772436677,-207.26185543212785,427.722862884197
36.47558230934934,-297.7222100564626,455.1050415043721
249.22834536787434,55.64742272461552,-506.5196970790382
-110.47899664040008,91.06266571299763,416.43296082224253
184.4032005478376,273.3348977478819,18.15348290769285
-2.914357282949083,-472.7405256562349,-128.33472246701683
-65.57355555674546,359.94523276780836,63.64364504212338
-150.85753072180515,-505.38823794363424,-9.449812400376153
-246.51772475574955,70.57734343983799,-231.10370408327438
-167.17331445025047,59.434336998147394,-917.7734328509245
52.82127056929993,-287.90467259326266,501.8294912268329
348.894678358552,-76.56357007408165,283.48740661403355
203.6969008277789,134.90067978486252,-758.1321876200064
-137.50074233359945,251.9558822784282,817.8108634099074
108.12252168719144,-184.30800164354383,1016.0680907145843
-271.3934320633045,234.55755510960338,327.0297615954342
-360.6448500430605,188.52115966233973,679.7779353459157
351.1372877650594,12.974692836313798,-382.09410008448754
-22.929638045197024,20.452298736998017,138.60925103710744
319.68599273518186,44.01523417828298,808.2861249699349
-335.27610281925774,55.48121088102468,-1080.404092191398
-26.812008583174414,68.91256477861056,2.3593786557902905
123.56886728107659,-40.04886027324323,312.73213656629844
-49.7546155825065,240.20457446479,515.3880884100723
-2.9233267605514177,-45.66460951198354,74.86703587185676
116.27999898021608,8.134217459943835,130.76759804543624
220.46150175429963,19.64670844910575,357.1330217853838
267.719594063764,243.07489337445998,-149.0714739925936
163.16698622555674,114.11825226887802,62.340730347100454
-269.54041343878833,8.918924479134208,-244.03313977230124
-45.12399836719804,63.53499593559189,135.75524104427018
-113.06264269169924,-171.0607044982844,556.3011071147189
-283.697145160159,495.0426855686271,272.50585866615637
-295.41479277592066,33.292596383869125,654.825134525548
405.9083325822373,-377.0959507299413,491.876774527769
38.583297068494204,-498.8688180540909,476.02880950061615
69.2922554798607,-96.39536499078746,55.30010375606483
-225.64347029020385,492.2735138816562,251.22444575133358
81.78319833732795,-93.13219260383528,981.7268172036477
9.85089037350805,222.43886952835066,-306.44146604232463
-271.20891931296734,384.9301403151631,-476.3186135117003
-260.15181844376656,105.16339337249467,-161.24936647000877
287.3115105821868,280.53283733542935,-8.595186908691158
356.8886500496453,-85.74540100534419,-376.4830275097179
-199.31627722948923,182.37242823971894,-182.1974653501157
-18.799812084450316,-44.7793530717028,-361.26157007202016
383.161472035441,316.3178945030291,-1448.078000202463
-140.24347046066836,258.4137578162405,435.7743292907093
119.49838987789406,-24.162400398959562,1065.0625596729647
144.19946800684409,-81.40421071869896,-47.72581379333707
-56.271856676639054,247.9811005005942,148.3073419506094
-151.26398318548476,-7.782278343819102,451.6953509924864
-155.4458372584814,-155.85296862166905,-100.62173350377252
-37.13340582261736,135.53056422835493,880.311742703523
-2.3295386026463447,20.081783808436914,599.5312568616179
358.41300815598214,10.196235485163575,414.39668382826864
-258.0923972870859,-289.2099437468926,621.2367918030717
7.906521817672356,-272.8739848497794,849.508924327991
-420.95010581084944,-151.5711693905144,462.2985635957691
127.13430523415943,-104.76346034971931,28.998192472583277
200.13065379590867,-146.4707422041743,-634.7879459636556
31.97596522493336,128.17483705188468,437.98680404217987
-21.40888552673119,50.07752688963991,-365.88794977818725
175.09440437336136,258.4625927534447,350.83654486048084
-30.17460952568216,120.10540932162633,115.45577970160613
-365.12541603871085,127.7844699025347,1081.3139665859267
-345.36197201751577,-111.67184284086858,348.4106062395535
42.79696737519913,7.3578542502974065,292.96698221135046
19.44799476865763,-70.63239504619779,639.2998510220409
-288.33556163522763,-124.12321982854884,-252.92161799617384
33.86899420221348,38.739554073623886,309.3311930340813
-109.65836884145183,-8.367257397756669,-263.0365377905509
108.00980931582697,-332.4678547008392,-72.48677059817567
-93.69305893090937,11.044655263422836,-312.2035609178489
-85.18004527119642,123.71790989745529,-147.39468840133475
-271.49086583443216,-112.9615298673102,356.42130109417155
97.75645095637579,432.7393705135757,-265.6983687211886
145.44937679335158,-231.19979532330407,984.5084462901137
-168.9157995300131,-241.05024907905369,787.5183074914821
-77.51138733729151,-205.27453490052346,-34.65428385135519
65.92842272826107,233.44870075433505,122.1872893274057
416.5618972887223,97.31711476217065,619.6412791567516
-252.26961536049183,211.83159474000948,280.83165959241444
-181.76474551483548,671.1360028695138,-395.9069811555409
-101.04960001961396,186.49312576692753,706.8318407299878
-225.98959679567926,-301.7643122937933,-122.36812523700587
-22.67764429969219,-255.40648733279116,790.0817725133077
88.48788770559744,-223.63435046999876,701.3106577958008
204.8221034943585,306.0412148949102,330.48944242028335
23.855989328339223,24.062333617210424,-452.5417067329545
-112.8143529007176,112.06955900617956,576.5128935150268
222.8436885182897,170.12327221176312,618.619723053949
12.69109733296936,264.65224988033805,-38.475391239304784
213.7684029823196,-10.042324548875486,420.68437151258723
-182.21416711024608,-16.294866763879774,247.99108050983455
-79.9049470882515,-48.530051096014674,379.0699199685326
-70.88588783496381,-3.696477723287911,-216.31248492204884
-300.88696319292103,-90.08318181524072,-309.03530449811836
-106.05137315317235,-616.5508617999467,354.08404055254937
9.861725158958713,98.24153834382001,-592.5522879842214
-19.431853525096628,132.37245667902252,151.0694417229683
-21.024927818184583,-366.25532551459105,615.4057731660097
39.89982802882127,-111.2876903916941,133.47485849078268
44.85241922651609,90.76803455945378,-503.72154814577715
-27.844270215114804,194.14698856339666,41.403837481021945
-112.8560810665836,31.825419545128884,-352.43373017806056
-527.0197072689815,-565.1860736303041,141.3586688126209
-224.50673444519143,-56.67501280525511,287.4301332101699
-100.52066339861445,102.62683131276309,80.50745803316585
-92.24244172690753,200.94264164437908,-335.246098396893
251.5606259994435,-9.622364061044161,-928.5232553002514
93.77777332012569,22.434935826602015,-497.47009391490076
127.50923207118186,-119.19479068712549,-162.585626114969
101.47416074507748,494.1544126662224,24.174682616008553
-896.885977307393,-113.09305782805316,-192.74677254420723
285.1233021087783,-77.49135854571703,-699.2087315324701
36.236846968111955,90.95357771681824,-111.79558391800263
197.86180860155312,-237.38722817005817,-279.9973928675381
229.74073094987523,111.71907851195742,464.8531446539542
187.66804537834707,65.50281363715241,-427.1895822653084
-13.985377572248217,-28.75623067684042,-670.9135723405993
28.451363099127104,46.933302983528556,-275.16033308790315
-389.2668867630917,340.97194880088495,454.128356955358
60.242283374124085,-91.21034471580968,-105.58683868669335
-103.93484400446116,236.28338017888044,648.435037767077
219.96089762651084,3.40504138643934,360.51329605355625
133.69257191788017,-231.2858652315998,220.24200712063717
141.5826166311438,312.2194431799674,615.0084827869156
-155.74553772376618,-123.25825044073262,-10.212865283441337
-158.56700156656186,71.96327819617875,234.7711565644358
-199.1437647426134,21.37753106114878,391.0310054499773
-69.1441609457628,216.08426917429978,-435.34683711244156
-108.61198187043443,-180.5188359453901,706.3661675586288
97.54989164272749,90.47458066706766,-892.3723991487245
10.947375355374689,191.09556687754377,307.5558445261303
-95.9823480868838,-273.4494283181437,-343.1622714357854
-37.5375774511056,161.2993627793731,-46.290341707725304
139.3617782916981,184.98032571630364,575.3901244243957
-229.89238745818471,320.0044106571745,-294.5243587231595
323.8404403490614,-102.47457371135881,433.44733455261695
-91.346266767975,-52.08772871016733,337.9835297463431
-591.624220767638,-104.81864727901157,537.4554794908827
-36.836131908729456,-146.39307840651486,-239.30812781230554
46.96279741261189,236.92138813988035,515.4454882516735
-196.11638678515195,68.97839115917009,336.9347463484538
-5.909401271013851,-68.27985833782523,-338.98341394008816
-6.381240858568536,48.52177116167933,217.5791853969394
57.35852800714481,-439.45834700014564,-193.7329131619131
-227.10885792545022,-10.887223089852537,555.4910087985836
-36.453818318796685,-359.24486776930985,631.4723055561226
18.2995287250324,244.34534118979644,-459.3059083300054
-403.7912388891553,314.3120289585542,535.0332573868353
456.93511919444444,-102.609329192371,-513.5354193125831
228.78716905562916,-43.66940864752732,323.45939084900857
128.71977572692387,76.5980896804083,447.47803610468344
371.3713833299501,-163.70293455985083,936.2053522680685
-222.427763086963,513.3759783186775,-238.9793487014165
405.7441741018544,-189.96066915619076,273.3038457652498
289.35636546755853,-63.215164510488776,303.50749105985005
420.3962718743202,-332.66047561540535,-249.40787570303232
-305.1384467642803,278.78884537881044,-305.8381786346149
310.12751974765695,-272.07754695681757,111.2207379919623
282.01000320397316,79.0217532909346,309.00408460714874
402.4052877280839,73.63259616292011,821.8273459023923
416.13666834335527,-64.19210844654941,-474.9291058167808
95.60887790882516,265.57308329077665,480.41664392236896
-266.63342650426284,-230.73844827914286,-220.48114078983963
15.276519927654283,-177.32524277859977,976.2812628671941
332.31179433090284,53.783042042847605,-726.3806765096776
8.861524293251668,241.46772967758642,-146.22919491129917
-217.25908393672967,-13.98810706762394,9.670420996654068
203.78363632841086,18.900852405329946,133.9875442422272
58.83265892227452,-255.96860957917804,80.7930741748787
-48.38969997504824,16.941887717526626,-246.77930417740853
54.53402051640195,-36.954941358972945,-521.4014948468124
89.74587199211463,45.7007750139609,519.5722616421117
366.4055763304681,-663.6658277511691,336.6552009294342
10.170128715747676,375.2323640473812,-669.2183677981901
-17.697769335210886,-95.55216738961602,1.7414309426338945
-68.68235671977646,345.4033042719257,329.97979569366953
400.3633129691846,35.55651666532282,-82.65832576147524
-78.12882566050273,-6.082312958152545,228.3257940663128
142.4850503203367,-104.23461935362977,-65.356576877264
51.15224522062104,-46.3583908450279,300.16509634349956
-434.21729016267057,-367.36814509667795,750.6966467579151
-110.52058253109283,351.4002672290055,32.231816794128086
-317.5488852673929,62.08763316534033,-852.8726538199131
-53.39673039472396,104.22779276997298,898.3045265626945
209.8240332075117,-103.09155825307681,-593.9205975135541
167.4827048923993,143.05906643002965,347.3165272531733
-52.219200371569244,12.871517064280907,-624.9794673538502
375.4345609591993,268.1080620207887,-244.25514867192692
-15.900427634047947,167.07906326880962,682.8103610006557
-23.319747125377837,269.08118622818506,-672.4842944109901
-105.44514175975614,143.18205107315575,842.2825489875138
340.8794664653216,435.8168919088727,-1071.9343988476078
-65.3966825489608,-93.47634094365468,1154.1128745378196
351.3456855761928,83.17009740449676,58.855755748325244
-284.7150257472145,136.4992431541935,-643.3072380157691
129.99644128711424,-125.15671502832078,-850.9215782933585
-425.75794944849133,230.28712150608558,-379.0049021164619
3.9357292983684524,174.8125111187991,871.1815665617723
230.4009279247326,-26.96948335172116,233.4975103223563
-92.7009712592986,-188.09272426610883,-515.471720832145
16.35800983525304,-118.12304052717029,-185.555470719391
490.61363104686296,33.92014485273322,-326.2672861300072
201.75353641269052,-34.96246166866378,331.9599161868174
-42.40204671251785,-203.64641799934384,-774.9560609591641
-186.11352558568615,107.06703302025244,-221.76464825963103
-379.8399821392531,265.7194482517221,23.567638186407343
-488.5171415703951,181.17992169566634,536.5300672716423
147.75352461032884,-441.83465720579125,248.1304174735123
228.55272376387637,-50.16111837573279,992.1951780599173
-68.08390109678177,-246.9136175444531,-146.8877592974205
-242.1664584565538,66.88709315949667,-859.1192662268421
132.17921120603728,93.79046901615014,281.7554574599829
117.63369248688456,453.58971602646426,-524.2534657156574
7.825193216737045,-211.32319696756787,69.93220007065001
173.2171404611787,-301.5606922914042,180.8681524678007
129.2073302024807,-81.83953537277324,-1274.2521596347356
-47.57054877866699,-302.34954686262296,-318.1194722891678
-134.00790959227845,167.5053878066106,1055.4530865357124
-203.0988614997251,128.3818584070016,333.5577779576341
278.72170809031536,91.20121056134731,-1323.2629031479844
74.05685189724272,344.846816264223,-256.5705632634228
23.589940678425112,-61.28142963013331,157.20176381826505
-301.9277529343938,102.05812878299969,179.88772925790983
101.4569472888206,55.63594771678804,2.43414291919925
-41.94712930095286,-187.87822874485417,-651.4087909686388
15.462170118065927,-403.3230968452734,11.02852008870497
-268.8525220774684,52.26492587312178,-405.4403430388532
-95.3676060464694,114.13504877246451,97.1487610603878
-222.99845307293214,247.10321818397009,-589.4554809695544
-368.55402339235724,156.02246699421133,844.8371777373692
-136.24260713279585,104.70538849204513,-70.92416192759866
-50.86778235924637,-338.8767460339033,1073.1166014799778
123.52865439934331,-19.72141383565466,363.70807835196854
-178.47516161786407,-229.0293972796418,425.98669112330987
-93.36959519943215,65.72010752412572,-487.0498145439261
-155.61630498284592,-294.79206762225147,168.78197869058923
-418.15566013037477,202.3209299058772,-406.0714891360483
46.543995764716435,56.70748633382986,-100.96215144771976
212.32142229786035,-4.609804277614855,133.65558781529083
-136.2182989630782,205.95510745940632,243.32386883436826
-14.183168498654041,185.1371315695668,-638.359932935751
224.64456097643188,-310.7731468671451,-595.7362051516347
-303.3948868678414,123.36663614065193,253.66095023741903
32.74378854413457,81.54792101338936,-892.4166462310859
-501.5870604811853,123.37247971065912,80.67001536667314
169.42681523095922,53.99156194844769,38.05399611748066
-309.72281275112374,511.87612990685255,-29.136297111816216
-595.1637374099649,-82.84566328595,-709.417296228624
403.2424010837002,-40.13865069765754,-244.5987150008213
107.289948786621,155.09286599583882,-432.3781246115827
137.10702779865338,-185.78651843328763,-92.71287508989438
-105.7798350257364,-200.56152932900196,-737.4866487570848
-160.47835261154773,37.527457900352374,380.43186072073644
219.0451275835904,-96.48197189312755,-19.17989978691395
290.3421605842655,-228.40865165794634,-839.5416988663977
49.32814985679531,-115.58900734508268,800.8416352758621
177.7867563493501,-279.09610401871123,993.8579874672964
46.889143639168616,-216.282216266971,806.8028304387869
51.31742876458358,-250.8747231028391,987.4317917341041
248.47491639175337,-43.23078457916223,718.0524417105313
22.80345284120541,-146.62298959374306,-481.60013979480294
-130.85822579437306,-221.76457341005218,-200.1350109584709
16.35269180901395,-36.07933341726855,-34.31035388248402
62.051242007370924,57.79185532596384,-1008.2359577794283
146.35160033634614,26.25986137358814,-137.725067557346
-240.56479415318094,-166.26764929078647,-73.55839884085556
-132.79163323222485,-184.90153904953863,-406.03980212891406
-136.9966603438234,141.97602743053002,239.66372408287143
28.679882526493472,-341.1347090714238,-537.473387421943
-141.87385863948748,-77.23483944343917,304.92469761902044
-179.35286584021165,141.4837344579019,660.8184345920844
58.59875046840553,-452.80059068243384,209.0636233476752
-80.92005545699531,97.6650202432923,339.7283703339796
128.9326061619539,-5.103474956624275,24.679313807502208
-213.17762143997365,-105.13362107745378,-143.84457432616182
-91.89703012249244,-39.828333984954796,-594.3324349662157
222.09139648492345,65.05980082519594,-451.6448546769195
16.585196254808018,-86.36855867967544,816.8974195739258
-4.961986965746846,-235.48706102352259,-581.8411514451227
-168.26633031227445,-149.30020688026883,558.9371405387816
50.231658539361646,353.1420222528882,-56.79112571645198
139.04197497266878,214.38026444993574,275.6403802542775
186.04411027386857,6.835679646542932,278.43271084038355
-229.84945144430674,-29.812493645017923,-423.13732476997114
-31.812704381780815,-450.90625322303214,619.9120230091019
272.07993947214993,93.6593751075541,-814.5252236251721
200.5485798180639,167.4894106931611,869.5224204127738
-156.277303880329,249.39494036034785,318.74815514112976
30.966141814894936,-208.27273153241097,652.5545389812672
439.26842765274,-46.43305279749478,535.352504780311
110.30882605241446,-86.81817980997913,987.6906457093193
-69.69251451708763,-470.77664009233365,-330.00093640804033
-266.7752440616931,128.28535601959433,246.26879228334923
-410.9330716341753,-78.02816872796356,245.23394548581737
-132.26165564526656,-132.22445201686708,-367.5480201405945
49.543898423748615,-153.3728351172783,750.3079974546757
-189.47715312347185,461.22466818617295,47.47173275224833
119.31409989601298,264.0117617016016,-732.776866038158
-377.2828915276691,-318.03435794283143,408.73826736260315
-21.009074515942405,-35.837353770909644,159.46775683160047
176.43174644635397,44.956498017075226,83.51075224190181
-65.93862422035372,-94.22822949171831,230.85571598874057
293.7346330678556,110.0361712364538,212.08746832863625
-58.92079251907886,-293.4636499000016,192.4775734154408
167.19999928635042,203.57230498114527,-276.49353586171986
234.8206966351614,122.75854876950712,-838.1408312577307
86.29989764065411,310.19963273663376,-49.360792986242046
316.52448948627455,22.32925307611379,182.49364676296273
26.383756348025134,72.94728636245823,885.0688756082458
-82.73152597364043,248.57012917133062,-623.5299228370047
-43.06944195579496,-263.4944795986916,445.4789468158108
160.4357421870289,-22.93748940710858,-716.9679370809165
-151.70749941465456,-288.77397119796746,-777.0755429158875
-7.047542491488159,-372.92716950643523,-621.706675038159
46.10699105986922,-163.7533277127663,-69.63256457900775
-26.922892582379816,-254.58539161731278,-37.977002209380764
80.227613622004,-99.84508308589056,-368.1548501256166
-107.98082876694136,172.44751878427783,-161.45268241675896
-2.4016572700942587,-219.587696709214,-87.7490786223109
78.04448593932231,-177.51312000524257,37.50756753803818
-211.88317161682923,78.70619621480058,-681.7482761520945
60.07588794431429,-125.59590519203103,290.53093920381025
341.65953929913053,146.84160985609955,255.5889116484707
-16.765337567427864,280.023878981598,365.6955718055088
118.70450790189044,149.42608280324498,220.80753963262362
199.64060379119383,-159.34348775944474,59.07423784593867
-186.78757584260563,-215.23960632816417,-430.9396934378907
-87.64140711724025,-249.36584445392018,-111.02928505899425
115.38713937474401,-267.31846532280343,-942.3795534713065
281.2597498781956,180.3714970519837,-540.6326806499885
278.0459110276702,-159.2077143066349,1549.586031427696
45.474449400280534,-273.7586951282996,-63.404870820975056
104.7376812918601,-122.86225984252863,279.75757533117536
-128.81141420558941,-426.9665519154512,541.491388082215
-67.76803003951352,-14.411206527139484,728.0262673882794
-12.509031869412269,-100.21519304355965,-448.5635095439148
-30.17497287148189,-23.123278393295976,258.3635276430346
-315.21283101463985,12.54006564658306,-667.7370079053424
65.37307884805436,173.99910000596273,878.9985653437418
299.896842545358,100.2467866937739,1119.632746644867
-150.73240312102294,-110.00565723118689,212.47835328329955
28.80536229136888,288.53121956825237,-352.23727025876696
105.90542303607577,-47.2238097648808,985.5942061389926
-266.5942215069395,22.501428343541292,-495.98070106109446
-39.89121428777057,377.3380609032162,-795.841315263095
-29.939713133141836,265.66018977560043,91.8098471579301
-4.787623186840795,269.57456027474257,-590.7065373193676
-308.11155129863425,-131.82934583155554,192.40295669900863
-112.32843772947983,45.85962812465392,-341.0809115216273
-152.15384067134613,198.64546883373345,281.3301998684397
46.206578943803414,2.5093970569338144,271.8240413833657
-136.40920619326238,-123.88793062422675,-956.0278878628473
-185.19337807133167,283.91522860914984,421.20393693531383
-64.08133403140987,95.55573689746359,-243.56153240811426
188.4396217561411,-156.23078602583922,-1219.1668388826008
238.75798896384904,132.38891454183513,-227.0642902991376
16.611912777806587,98.51396354742592,-131.27274201694638
-200.94391127624567,-46.708791742243974,-16.57289587880739
-66.4551435508443,-155.63488249180435,177.76095568743608
-2.324870284259892,142.9394997934675,418.5471052703527
-17.900127949324908,-85.52533294302994,231.4266919088249
-243.0509954345529,254.03152997804264,-938.589269088298
-220.512764209164,-118.62433289809337,4.56400360382806
49.03465334832213,213.11585102741287,-56.33508237781983
305.8217947541302,278.46964298776237,-531.5359998184991
-138.0074191097074,-171.24481140796735,-324.92054825313556
121.9749107537014,28.985018191062224,-465.38690874090014
93.6330680088719,239.3485811737854,-334.45128546641325
282.276245050264,186.66895538039563,1219.5254579743887
0.023444637675580974,-97.41196595292757,423.5677373537445
190.5176315914399,116.66236959196073,738.2032468210542
26.579003333007435,-57.27736904728076,681.5598328955522
324.5695373322779,-577.8913390107573,-278.04766071753255
38.34055885381356,96.1916346259063,372.6105304790172
-408.22938227159585,-8.217774812813374,-387.2460963331658
117.23772883674903,-290.9840125477074,398.01012275157984
-393.60212194039406,126.19443375856227,-168.88089379268186
27.364806618997505,-43.08353038560785,1257.916539537488
45.9007802077936,-20.05668212703294,-570.6120855627303
-72.52413164772226,4.818018832826768,-590.3014596320803
5.86232018131635,-444.1872787408121,328.20420475086115
17.93986292160191,-8.094156993312298,-264.60550237261134
182.715847971939,45.708837463363615,706.2777637437619
-151.98830595188966,246.6274165013137,-645.4164691078989
48.72883601216028,3.2414729211848985,199.7439821558114
12.600389525750963,-149.66022645570075,-23.018758426703567
162.40659786226385,63.784423660818945,214.14651836664157
357.4521218608227,448.6918970924129,-196.63486453141914
-395.99122117609113,-39.68816405623762,-165.5892085867678
52.66108501994174,408.995514353819,480.1495611947481
301.5191417084457,-53.7661966494934,-672.6512339184
-293.9399472452217,-51.638596015281614,-730.0557733753402
121.44157229893307,-11.474706579824058,466.2584385613848
91.82944632687534,-99.4052965874832,73.71124837680117
89.99777352685597,-23.064885732945804,111.93064679866096
-111.61339882077395,98.81351892104571,-16.2450960148125
20.26421487357327,82.56442615585428,745.5091961652065
-80.3779552263114,-145.2097383417434,577.5108918208599
-2.0142550286378733,-46.954515793304296,54.65254295807781
19.706455149366008,136.9276943288863,589.1886039085349
-186.08140044562415,-107.76533434617595,377.13910918275445
-49.43560431475489,315.0627160316289,474.66678730490554
261.184512175901,-300.4702807142526,-853.3783819548125
164.1977124058318,-213.13558099895582,618.427454475602
-24.998005181945953,282.2609049950938,-995.9096764851963
37.47778985794948,84.65671779289856,461.42119489766526
41.400680329951015,72.7631140545677,264.8535089515532
194.2626198572666,-1.5253160183924288,215.3632421737522
-29.75010259656913,34.04159653717678,1055.6166993099584
80.92792694347551,-18.21936452390163,483.66461158117454
68.91516819580745,64.55847543031061,-29.948794976738238
40.593984123216615,40.86750075086412,-267.6890520294884
-100.39129395200625,-150.4218746275172,-247.32116398719396
-247.39643517681452,142.48181203413196,-453.84319722776314
463.11197612571647,363.11219978049695,65.88952799108753
-233.65221123509357,50.93874504612506,-15.413364434327194
-12.78678665850562,62.49867541348374,-273.55201910866674
73.96964998076194,-276.1144916682177,118.6518558905144
108.86217253006953,132.7523135344253,-301.830801937851
-228.31985999684616,487.85110530281946,-123.64754370481536
30.54483365597227,-196.11508823704526,-555.9579113436127
-282.07942704681216,-280.28980700430486,-296.50988872981907
-10.584604641144564,34.23448846603427,-466.89235514793603
-36.748782781859305,33.590159871366076,594.0271629460717
-109.98136565258288,447.08037475403347,-721.969130338434
-465.6322886229101,-271.19611032655524,1061.2666510917527
180.06596434386535,-35.06993348349028,93.35550666783473
-227.0077070516162,87.56267345524674,585.5481417109085
135.61158124513085,-82.4140856264304,-858.2215999265027
-68.46253834523621,-267.0159990235097,584.7979305833129
-350.7188712043445,-44.87602588552955,11.568621354795145
-58.42096118094392,272.7850665312973,551.8284639503876
89.08675076646402,133.7437605544276,557.8448323360489
115.63163378556085,-30.329151014356555,608.1703421861935
-23.951276958772972,-235.75653933531373,70.67586842479248
-308.95627744530344,-200.87307973252075,-156.8345294835478
-351.4502034062386,416.89363698479144,247.86895812142433
-83.9772962545124,131.7760882993253,-670.6606791460807
-14.292544558864293,240.47235313704425,205.7666350440921
89.28807353741975,-26.57820236458756,2.767597091455124
154.135013654641,132.79118704631344,622.6824913307029
-263.61204215534684,-315.78180820762026,798.5406553267449
-153.08180719001894,372.55870872486986,128.06061167387878
-126.35458080214936,1.5980633566231293,-54.569917834964336
-59.38668220686488,72.16868432848466,-802.4745318310214
285.86319571054344,27.286167141782474,-879.2063928795181
165.52883431161126,188.2340288767755,341.0288584564312
266.5720018367968,43.17016573544515,264.84338860826864
121.17011135734761,47.70577388211784,324.1673099205192
-99.6923487326068,247.4628722554649,-43.819863343606904
-365.23428330887356,187.91990427305822,695.727259865696
-8.056200131058844,234.07596798056346,47.781008503224434
-170.0244078176652,-55.78606643664353,-988.5990418040008
94.91188068607272,-1.1736713278092386,-428.7463059111045
327.06686914252305,43.7471875513109,-474.35764824790476
-324.9149440716863,370.6849803641355,516.696473141491
-425.94853795984807,-76.30100238363214,-708.5853385697743
248.0012201004261,-65.5231407041855,-100.06277262961045
-358.76577951647835,-101.7877138953342,678.2483037992025
255.0994611031828,225.42873137097584,-251.06894105952696
110.31559539517485,53.99470140001959,176.8713139406409
15.077516198640645,-365.19656924236506,-149.56600577579408
-59.769792419889036,-217.8500528322535,294.3360308837092
-133.4179840927481,-424.25896677988754,878.4581587576523
-112.56733582410425,92.62060570341909,-38.88909284285679
125.8093046154856,-1.1526655094310385,-527.8465503626887
-354.68706850377214,-204.83491015360588,-157.15116946995536
123.98478482232859,159.3257016852801,686.897280073667
-199.76330979196848,9.942963994908629,-352.65675269706287
218.95408096830434,113.48314471450584,327.2673221563912
199.2569055489463,-427.1489973778461,-333.11892898158544
76.68262398934841,-81.23678679694916,793.9309670831565
115.86361261723899,-59.49880877557307,-10.393917212511493
-193.25234680820049,49.24427787027052,-138.81557712942674
-304.269587161024,155.5412571895472,-268.25466402806444
171.54787029934178,110.83348936233112,338.181899455099
103.67255576586827,-220.11805095386734,-262.88082270952106
-181.59003203075662,-285.45947351833735,174.84541660280732
247.27045777159208,-12.065850385956555,259.7331976215487
162.80648468024367,328.4821122796781,-593.9651082882662
-26.13186643250711,-93.44497283687889,-195.82376615197003
-76.90638295741479,50.29222739700241,442.70360941830427
230.5285814947852,146.0960547991032,-618.9630681092424
202.27259934104583,94.30129565668658,159.33973880146644
41.44146457968449,-11.324629408443704,-751.5036065218293
-350.02580337535727,16.300333749455216,-368.27125504230645
45.15975146437117,327.24504727317105,-416.0124651633395
183.88949048076176,209.8608369910065,265.80630498066046
142.62269300690178,-107.8638204275287,-83.25947720769017
-62.29896604889114,29.65909832000959,-299.1198213667671
-84.888154259724,167.17394254773475,-75.67290177293185
58.44888232751949,514.0999968100726,-125.19368993150087
25.243623606600174,-80.83416325254802,-85.02327817721658
-140.88450312146006,-218.87689956518184,-396.59120171512626
343.59838244508205,198.9167553875821,356.0286136615462
149.1502679543263,317.6254803338021,219.637506870152
-36.53664225369024,295.6734835349557,45.24784929164811
137.37938429897957,250.65423355534938,92.95847864723318
-66.7379731529965,-80.48166697074977,345.25579909473805
-177.0153917933625,-27.993235420822728,265.9501863960615
-105.4118233080336,-137.04024892119563,195.76790228930523
-95.71455607893728,705.7552735791315,432.4146567236923
5.223269062315284,354.67419023608556,-206.64884741175155
281.05949535187057,-366.7097781744666,217.6905008900036
-46.75045218800281,-174.1821626853085,-884.0550582740148
-45.390385763686034,211.29561238729693,58.55843197776317
104.21520747238708,397.74975075622064,-452.5697834607908
34.36831122502054,198.6504329162826,204.99261499197956
-180.96370848193052,4.379809903373133,614.6108319730743
-431.69581230441196,-132.73786445666042,577.8185532725711
-17.9439384775424,347.4018502109285,177.42460949225992
-329.99363822905946,400.81693363922665,-258.59521796913094
-124.56968347494268,134.28872751628788,-236.91168221727577
-171.82868769494428,-140.50427467771596,166.6251060635207
-54.100612850162946,-299.75121527554603,567.1066982097136
65.67065242832732,112.21028652479106,-415.455146955114
-64.93565133973115,13.815739676150576,903.805057134973
-155.17387458600135,54.793017396361854,141.32142273766908
193.93335909257814,155.103228364848,424.98322317169135
-9.997910414278865,135.28320062804843,32.17070467715461
202.2573924283562,42.20203347351429,-328.545225320409
559.9912457486126,101.15362047226529,-276.0194078024999
237.99421958604987,-40.7373651968591,579.6264139356524
-150.9505143589853,-183.3798034078224,-97.82456943347024
24.81401676085085,389.4014742308992,246.06430616399123
71.79108654577442,116.4777405604841,172.74271247846386
216.22297155532118,509.25067392152255,39.476006924326256
372.2287034583558,44.18199839536214,585.6326859271811
-83.27379406679938,-54.29071706200409,206.84011598000873
-0.8922924971146726,23.5553206660715,90.4009036410083
92.78643702935067,11.152028006308162,358.67736228036136
-2.2857490986525364,201.57443630282236,-3.538750047812926
130.04348963878522,-146.2666176843318,-608.840127547806
-230.0182442033351,100.4611888616751,-337.7322618763892
-163.20553772191352,-254.72091965411718,901.3426872424128
273.3366268823018,33.43383448496578,247.59932294816494
418.68155182091334,-435.0770472665717,-1161.217477329288
-393.20388714778477,-309.0768112197035,1086.106518112074
-74.91674353684479,113.29133739794285,320.016959529537
135.78619668953507,52.84884647686026,647.0881363412063
346.80687764244624,90.75863954259327,150.89463964784474
166.58290407093014,-306.94510993345034,-358.4349331521487
150.49495958741795,-363.44343307370985,850.5906807842766
152.63775445275775,-31.320214764131954,-155.89847206036268
71.33483454443636,-435.1969057315527,-259.33904274543295
-183.77309623603148,-386.0968637086666,474.1884228970919
60.67927572791769,250.2602727414877,-625.5170298610614
355.7548125349193,235.3829543712466,137.14399347096503
-463.53410343170765,-23.5453537964461,-83.48723157923575
313.4770523492219,-124.52061067206853,-703.3652409776045
-136.24510870199984,82.29064331529908,860.026355460547
-172.7155045842818,-216.80044521703405,112.01036468106662
-69.54835862819266,-316.03216312457744,304.2527450013652
-225.65335188627157,52.85670929159687,285.54654458832886
103.91216019506359,-2.67041443435015,-895.7292204447583
-285.26899986118565,-117.16956063724678,-872.2506471766577
32.51463485593767,-298.82205474797246,-263.92998813584643
-358.3299851254605,147.85514484706596,206.46776804955607
63.56752352188807,115.83511548478862,-247.06088131020243
-138.59430169062674,-361.6518080643218,-344.6111387602326
54.423846770570314,54.96125183598789,1510.6827577448112
70.11615519058813,36.0387405549934,-221.4792457679449
-337.1268570969424,-2.6348389129068686,-34.77582044657295
-57.93396098710808,-201.2828503106096,-957.5206388788313
107.74281289448622,85.24820236396488,-93.17860707595123
83.3794322152325,-15.010761030069682,661.8987747930283
37.64446170384107,-399.51962187408975,-670.925168192548
-401.3378186032167,-43.15543312130157,1179.606662444036
-224.90105562006005,171.67993115240887,-102.09219352426427
-179.9220546150829,353.30261874606697,617.3730106939763
68.25366803027624,-156.11310938033768,-33.529221576614674
314.71058171444093,35.286652531974994,-990.6574475304703
-259.6147944601291,-206.83901936691723,646.8821594696861
210.13013087739805,-360.62760663317727,868.0152872164649
-134.48762017756454,98.55483090180964,-587.4966780334245
48.28946487175319,-191.99935920741507,-860.155408106634
-206.1139860997762,-214.8620914161147,482.204819642686
-41.06069517102994,-144.48500288684036,-375.87648127347745
26.08927876493498,133.14848011271235,-160.36912426971864
102.7032053223763,429.3250643417205,-405.09050889581397
356.40760522900734,9.043802525657018,399.46819562427726
40.34472485006085,-77.5123267305455,-194.4503898719162
71.75536279505187,-176.5683029089702,-574.696895329322
32.89187919805178,243.53986459737715,-353.06657661671784
-34.686226961589995,-45.85050822588254,-231.93821786010378
283.2733972642987,-12.592568239894625,-399.6696270539283
-214.79788270917211,100.09295985131985,-200.08508852170553
315.0947410331525,173.63445635912294,55.91621414847828
-207.5594234533102,42.45838097060579,-142.43140650642465
-156.96952230462344,30.949010537041783,155.41051582262907
21.632509890264807,148.92351814464413,924.6093880505387
327.0525508241414,-60.39088610460674,-324.62983021196084
-114.63516170760745,235.14369623247876,1192.4495996612432
-40.98515635907839,-52.852297049593645,1068.4146147131705
-43.17339072824841,554.0869474136712,1308.8596883999332
103.36996695935487,-10.151757882125382,-105.42203787837131
55.70790253920076,-284.8929832605157,-86.13161916020576
-93.3376625973056,-138.90156833290473,-48.33376089841375
144.2194918178026,-426.6600039330645,-697.7830519842262
438.6179874678242,-216.42298218360673,864.5135768172395
181.47679426845,-246.8405316129316,19.98572443518998
111.0023363304637,242.82065286932516,1140.9849207577834
507.93151135024,181.01317726264963,-224.95428112991942
103.2840443371006,-144.85575720783658,6.964448765573163
-38.06434581126476,-109.95039355225744,-771.3273566482526
-106.87706360561522,332.35132410963763,-966.461131879169
-200.7986199789194,187.20252425560548,161.18104593631568
106.76456875653699,-64.71531396878328,-389.39261070529693
116.4911543185529,172.50970109845701,-239.01889390474278
-95.98311080002549,-8.848864709314622,511.02104416503647
222.4358241855656,16.516996429557622,-13.50248175781269
298.1281139530925,-413.68717072484225,352.2662965541362
378.2882354894723,345.0955970864355,-973.5797971056575
-47.78291324815685,24.95690921806544,851.3802332065939
198.8920345622143,-553.5249144772056,-1559.0030070488144
171.28627863605962,-231.08705923836462,467.8413927634022
-21.492860172497142,52.351963575265415,-58.22182259941551
117.17228930808301,72.22923401054194,227.48322374528465
-4.459597469639305,-386.140947517867,386.201692610456
-191.49424911567044,-324.5225679919696,143.7958470966075
-177.6385374437245,270.94190082759206,-8.272982049954887
-128.0803235639987,-213.8941323212917,42.48379409242519
90.48311268147337,63.05622654511392,27.02568867004524
286.6504915350937,-277.75328991185916,-1212.5958309836053
225.23352854856208,-36.24043725023498,258.87182242434284
169.4248203869306,106.86787760863132,-634.8408189694325
225.0086508012537,342.893074183558,-716.865787783895
-292.87463607608294,72.4334891186976,12.968177621187493
201.98348462116172,176.04774454202717,358.7431473194324
120.71526710247227,461.30835657147367,-161.9804495312871
145.50047350876932,63.92522108245574,-243.32228736366883
-58.77287899834015,-3.822132202561342,22.279358666618606
95.14635277099373,132.6116519588506,-795.6727423085824
-176.86528950497257,-160.57110490577085,633.3295857468979
-126.62746193632162,-583.3403665545958,390.84447934087433
-113.69405214709343,136.72750269475364,-164.50282360641066
-117.51536905152507,-368.3938199358998,-1120.974303008115
-237.38910521019895,-30.032310118911404,-689.519640450464
-52.49650763403222,161.97509263400255,-597.3757165112406
-298.0275073810699,43.85927076391795,-225.10939644492436
38.77122945293792,279.92574782655095,177.28347674389636
195.72812550756277,211.23072915956905,650.527456289843
146.6463660789183,-214.7943208618481,89.29072768216166
265.5826835473976,80.10415236217709,-145.3485857634089
-343.8063279677353,-137.2730597564146,-217.47686569180502
328.4151169569005,358.42707947178167,171.6365685205889
213.9954924906867,14.985530600127097,-564.2853652876073
143.92404629870686,126.38345645097647,808.7366355182268
93.30844606221089,-271.5233677568503,-275.05242239690705
267.9512093054008,-258.17257053472264,-556.6526565482508
-99.43326232563986,-100.95406774845542,446.2002721412722
43.741999763299496,312.02830675695685,396.8532261466338
-318.368627870338,-19.838804765817077,-743.4568722608215
163.15531633140097,-242.71748445790004,-508.8039573237331
-30.213021192093127,-141.19252805416863,-256.7350164999571
-1.9429574800157758,-261.33388287625996,-439.29728499264354
-31.40444236386092,-267.63061050671956,148.84145315580807
-70.63595198409357,302.12677828549744,-83.83803116501379
-312.522792609134,87.24845130348726,-149.28354194379398
-89.79184645663995,81.71797974795308,1013.8150368904124
-405.53412390790385,270.77113004789715,-397.86598873478954
103.43214525412598,75.66676203295056,-196.55752930456038
227.68453128706022,-40.49086348413619,184.97284704568153
166.6760800856923,60.78754826982403,-198.3859465321481
178.1235456231322,93.85317660043931,83.5724319325869
-114.40133382895033,-425.7254116880849,61.72409792393906
163.43029002637923,-133.1744841260127,-1008.0228803680382
-444.23097962036945,3.094618139956981,274.47877319203246
178.99578938170382,330.47801881495815,267.56179541649436
166.37653363754094,134.5652798292946,486.5748352942105
50.98628420665447,-151.75062812448542,772.4973629246387
264.5720672630793,-33.003630640201216,-849.8315769546498
309.6228185763015,227.13333225938294,-546.9388747082409
598.4491288974472,-271.72790755562494,85.9111170586682
-466.8896428663776,471.35173181216794,-74.85021391518082
654.7568469718618,-239.00520395117763,-46.498331451062064
25.4604819939546,-229.19437644458233,-315.16032560866756
-159.9235518282599,523.9832998432883,-727.4904057389948
-218.98008908503593,341.0333696454636,8.143784841453092
52.576088325085024,228.26102375791478,-463.25830556799724
24.490804191875913,216.83779601099698,117.35115316478587
621.8360137632169,202.5574150345381,278.785084027608
-161.871372214967,108.30230232603672,-496.6221159908155
-472.2821609339295,-108.52206181671093,-172.83026419442498
-18.089327967397722,18.320598113725016,-314.7667944955095
