-5.058058218218537,7.955761376565085,0.02500171321812532
-9.871626144978638,5.551587994926007,0.046563506762613255
-8.897009476881259,7.26068176858827,0.0031906731689996474
-5.000429072152091,4.124875006766406,0.017604240935130123
-8.38722695694491,1.9409308367843325,0.017899169961317712
-9.149741930749602,2.20780532089518,0.03606341963916117
-9.899149040644517,8.630841425384006,0.02709025018360552
-6.103707021290142,3.416874877900624,0.0250045398789371
-5.09339634691567,6.787742398670577,0.03624406871644808
-5.952715236885363,4.350779999305984,0.03311306523685783
-9.40153215120209,5.1242479926293125,0.04350905356512791
-6.615123978394033,5.173155654265296,0.0041386647006368795
-6.606271861101707,0.28842215086801737,0.011704113254135602
-5.050758573556063,3.0617321632317274,0.014822280591441967
-8.02554975840248,3.7960526389463842,0.04893502325582389
-9.309826730583762,9.385408263311092,0.046328268280211166
-7.544486369104087,2.6565982016943943,0.01321950155432361
-9.91527196210265,3.9532987536129136,0.022176778277557693
-9.28877850940016,7.523812660926175,0.04983435718632339
-6.812619395023761,5.320281976879789,0.04916645766946485
-5.619245139675535,0.9335705061487964,0.010287402808631253
-7.509807141930181,6.674247203400374,0.021008109649847607
-7.631674973208423,7.321956207193829,0.043783307950524084
-7.845374994667104,1.442760641293157,0.043388445605611815
-9.622187432136602,8.203859778091289,0.02486047965091447
-9.83312685902348,0.9641446072166404,0.03274874499110147
-6.0425799116165555,5.26365586312361,0.02519067342866904
-6.617125445617642,6.451427365737299,0.030591805942057466
-6.213377603134506,6.771683706782267,0.0019086989788220433
-8.225340659566864,8.550736938668354,0.02848069573906884
-8.220959120511509,8.448095028321081,0.0005827222592198478
-8.171916367497776,4.2556470464604494,0.03867895879257799
-5.084919957845367,9.648646075808635,0.03575661378739302
-5.135086946955211,4.2180002221839334,0.030297500188805372
-5.483518242627553,1.3817802023538872,0.01818211554845175
-7.446349265523539,2.0700616497417466,0.02227424169813599
-9.939961525227554,5.099838456516213,0.039627276878192924
-8.36500850830128,2.8535607303390154,0.049007551651294105
-7.030622779049908,1.4451406857480376,0.022061338310861617
-9.344502882975252,9.464409607944997,0.03747945078194512
-5.544618624676573,6.017222902071408,0.030870773262341417
-6.380198009609411,0.25547187290401396,0.023268083428733034
-9.51545235441315,0.1439147440339117,0.015014533468672465
-9.059498898149698,3.153224264706118,0.006482850570559729
-7.2182372794152965,4.8815709698894025,0.0044630711329909254
-6.1823424222966565,0.866347906352799,0.04842364644339318
-7.4510809102417195,9.772117924647546,0.023148803824854
-9.730918621502749,6.35202349972789,0.03325251875939526
-5.148402566738947,9.990784574897871,0.04211284146864668
-5.3170775157012695,9.480477806185606,0.027521299230381338
-9.471466178041377,7.8460718316185565,0.04822651032527105
-6.659128446920974,1.6485059799492852,0.0271457620860331
-8.182249522558008,6.177311669950853,0.033780227065393506
-5.153544662033827,0.22052126676270212,0.013030617100954052
-5.7201429772389165,8.581970247446673,0.020778950291166456
-5.142984612661939,0.9916005952949769,0.01805636309785751
-7.354648608006801,6.069308212996925,0.008553398187043005
-8.980333530896768,5.967460904448142,0.04336049747792436
-5.583323015209658,1.64341858065146,0.02787105008040753
-7.727303263552332,5.838949447085585,0.01906909786017907
-7.016422747117639,8.614893714979058,0.011372969959353042
-8.849367823377342,8.470072228579806,0.036804009580435525
-8.354711564303134,3.1601085841086185,0.020751874450968356
-9.482284247371016,0.907414899317297,0.02905951748085386
-7.13582706175786,3.0468775517708457,0.026948796012628215
-6.743058179181052,0.9583630297613088,0.0003306623319188906
-5.619816546800157,4.047351532051666,0.01871343823875878
-9.304095932707808,5.493053484195274,0.044596904687418455
-8.827314640267877,5.609999037828693,0.02397392713641723
-5.278244416891701,2.738244391236526,0.041890293005640025
-8.712284114085836,2.2325794797967635,0.02095564396993102
-9.700869026352455,2.852990993490873,0.04666224267430493
-5.568747007816278,3.2569123827156785,0.011286766100752566
-7.320108942113674,4.720987947244106,0.04368610322273399
-5.938667676409777,9.042431092933501,0.026373677596231104
-9.48049858154296,4.652421790881478,0.03685846058847054
-9.293230259918314,5.69643060504588,0.01950959338317776
-7.5323365873396995,2.073735634788755,0.013380796249323862
-8.627350398192906,0.32754137292120067,0.0319057967957326
-5.127426747980095,3.205059994261222,0.045022323486794254
-7.95549616135365,9.95197388068651,0.0270965677128935
-6.612066434764921,3.122410163772101,0.01234694961746234
-7.057451864320017,5.033274363313859,0.02371440162741752
-8.13558936890321,3.635434275324786,0.03558520637754466
-7.787762779602261,7.4241892269391485,0.003542118009436246
-9.596991898803182,1.8889356034026672,0.04520065933810252
-9.319122248520154,7.40774362892216,0.0009478305531924026
-8.483208779275639,3.2542289552077177,0.040510893000617554
-5.7794348495589976,2.413017052425932,0.046654105415576796
-6.74768483743839,6.59294091755376,0.0020037526335737635
-8.635895778074975,4.339281227112997,0.03327540241066523
-5.7613190238218825,3.279622692644711,0.03201551735247435
-6.253332040338772,4.195111737616662,0.031547342524222706
-5.049817218512733,1.744724661346173,0.020785250112541023
-5.194299578931226,1.0077609177936675,0.006191284441115042
-8.697898193589314,4.259848281895918,0.013416713858112723
-8.621799775270206,6.665058875542583,0.03817390408929481
-9.499925056802958,7.890470769247963,0.016619667988278942
-9.180199677952642,2.312832391832347,0.03886251144895516
-9.58465666730041,7.579847320030293,0.02105511108822127
-5.026851466978942,8.898634434353188,0.010316173606598889
-7.171207892424424,3.003841941870209,0.015598496529475332
-5.167478698116978,5.261006728363774,0.01589534174669034
-8.920494555059777,5.013572812199914,0.02421064446949697
-5.178715350226643,1.113490777172239,0.009812565625639265
-8.278705609702762,9.356060861897022,0.013409019647280102
-8.819862787520783,5.161972915011662,0.01718861674364437
-6.836336415955391,0.08679956148965218,0.04890524760389339
-6.837250920325547,0.5437999527763504,0.04020673150993566
-5.407761483799721,2.715282629832123,0.044014878694885934
-9.977032416575756,8.383677836869325,0.010772207257767008
-7.81834080012099,6.060215991342078,0.01063473474736617
-7.013477411000943,4.968117111248816,0.025171116286446988
-6.39475188421189,5.211354723140928,0.04739071743245673
-9.554428119273762,0.6685473895918581,0.010069841786089308
-8.046838474214962,7.2639511697318415,0.03844569187076016
-9.840774836905007,8.134612400566395,0.015844418130348203
-7.275833133433441,7.0945584690794465,0.008421542220959649
-6.308912648201577,3.4073351292564524,0.03499691267322826
-6.254562850957616,1.407097063831646,0.012354961863112725
-6.2642340580852744,4.24945692167673,0.0062201286009381076
-8.339216616823977,7.2872493811124635,0.037986176275875284
-8.785926679422252,6.658363515152949,0.020823552720204287
-8.34736131521157,0.6747910660482925,0.037787873365039706
-6.105733903925344,1.5556770881839777,0.009091409449587019
-6.423481821793257,6.092019274152549,0.006681334412904933
-6.674759376074569,3.040548234251612,0.033540570199079536
-7.968981025043471,6.171812277867483,0.0015491282910010896
-7.31477281317137,1.0505309972264754,0.04499439997844762
-9.15041323385304,9.546544400229044,0.020534646324027846
-5.311411138305344,4.5821296824749425,0.04571896572796859
-6.43639109212919,1.8840962621830293,0.04297476021934831
-9.056094340703837,3.1038692550574365,0.01020530679167251
-7.64034837300165,8.384449694833762,0.04775706355420964
-8.50914429752542,6.092557015753264,0.015194746195649889
-8.738287632263255,4.572862462464871,0.018135897495786753
-7.4455751795732645,8.940990242933793,0.04089871043860316
-8.116597532804159,3.8410698087264707,0.031023100333786392
-7.225630031300049,4.299995288176095,0.01251449361426632
-6.699635938471047,2.3212910740122386,0.022881903581038084
-5.994928784061778,3.2532301816866473,0.01379154634241086
-5.399099574649619,9.983992331283048,0.004303101388798969
-9.104860402431424,3.75976165521988,0.03128607445269749
-6.973415475363931,8.389446242167235,0.043962256335349115
-7.034135122583756,2.947140773022209,0.0444351818267124
-8.817590961140986,6.566571964778153,0.03471910487672485
-5.082333768504249,2.877305977318587,0.03240506997484091
-5.473717860689097,3.6926637960165163,0.028976503130241638
-7.214096400133244,7.506634539534857,2.9744121920582955e-05
-8.280456913538885,4.049875386107095,0.03735446709567843
-9.682467376331829,6.709964313855032,0.008474680980282806
-9.744235858077998,5.831274157089591,0.0005187448416229756
-5.817599032509797,5.9787228330264135,8.221091979323526e-05
-7.077915361117829,2.8088952993800245,0.02068967251266565
-5.172978868977784,6.352248159308772,0.04405443891709202
-9.242260447146567,3.631865025488982,0.021440617104802242
-6.593519866785535,7.186022487681037,0.02254638386855411
-8.956086194938345,0.5371811882138811,0.03580897590970122
-5.007696957327038,3.9817564289062224,0.006576265161536266
-8.248652559880433,4.0640161971214805,0.019167729422811294
-8.280502646139166,8.993636876988067,0.042314441658137227
-8.427429531728144,0.5245099888968252,0.015808551246044644
-7.603767368244411,8.722159411944714,0.004343960400468605
-9.072380182142712,9.255183637914048,0.02547405309428721
-6.032698372289401,2.8857031390813335,0.025747062500579933
-8.262862304775611,8.430920020306495,0.03462478350370083
-8.15158983990906,9.861819292313584,0.047207099798811304
-8.522379022220592,5.494027696670526,0.04620555024191779
-8.698266899942396,9.049143063206625,0.01455914293730038
-5.709359795408789,1.8234583709068652,0.0348953323945115
-7.405144639993242,6.697117104907448,0.0445795714665678
-8.844908386525569,3.2048117350488567,0.04285900674271564
-8.31963572779866,3.2569997363864545,0.0459367418204968
-9.283486873258516,6.112080012369432,0.020650337317283607
-6.583706533463081,6.0136882514053145,0.023442332545955347
-9.191166365813906,4.698568322498067,0.04001629234521064
-9.281497868355524,2.4465091824297227,0.016028667789848305
-9.51316540570863,1.4959575142390324,0.038839691499283395
-7.317257993962821,3.862177451803258,0.00705540787196855
-6.659095666527413,8.403623362565128,0.02757726208310515
-6.552288807859437,2.89276877527324,0.011477271380564808
-6.036907643082898,7.668251281312744,0.021400247770235525
-8.770416146504417,5.088679393672719,0.03800649124984131
-8.406187541263401,5.01184683981181,0.04291004321669781
-7.163160694154406,8.615608073186628,0.04878531005867673
-7.950941759648407,9.515843768256321,0.03359364043984003
-5.2013613189951,7.447338114436109,0.04741994874973958
-9.198231770878088,2.61201803292217,0.015941573981541564
-9.314887660117586,6.893269435403382,0.0426546323714219
-9.41940109030583,1.6626116898489152,0.0411567608080004
-9.049529081722572,2.549518755199803,0.017073968654889488
-9.057052453001553,4.245501678294856,0.03885046628568757
-7.037785156307861,4.246765885776251,0.0457012080172844
-6.468118060666337,4.7477544835260606,0.04213191334360916
-7.931256913296716,4.335305702949873,0.043227489581845906
-5.2698502225749335,1.749160952222415,0.036639712973629
-5.804298914678033,3.101053980252526,0.03393488863608254
-9.353358397212563,1.9181016048225397,0.038512469051664035
-9.290930595612638,3.8987887189587522,0.0315553046483759
-6.8096971665937645,5.1347710429709315,0.024280824198000036
-6.858684010897591,0.9123593975036492,0.00871001101874263
-5.083293463344465,2.201932103805065,0.02517308127060493
-5.307860246001665,5.252407584503812,0.0013956454238874816
-6.840904539111396,7.024459729037646,0.00025288888934639763
-9.176772118765271,6.701085422365037,0.011382794945917414
-6.029303625912811,0.24696672909001127,0.014757376772518883
-8.627558920277583,9.40019561788125,0.04977911110767727
-8.125590710207637,5.508922740097461,0.005697060580331065
-6.127163352738499,7.196646781691758,0.03630586293104384
-7.7918199690327405,3.088291533533476,0.018256230285389943
-9.733468012246446,8.986913603155891,0.016110531942914202
-6.563666470377782,6.984747212606796,0.004360936447104397
-5.693156992068754,5.29040936664845,0.023915586759265646
-5.203859057140565,4.031520750492614,0.007007100115698367
-8.25758322761493,1.710136012285497,0.03059932310398117
-5.7170672395167585,8.161484276123517,0.011436009630798489
-7.166222992986728,3.6863676053908567,0.02652738136907263
-8.38217459234164,5.620225895656916,0.03095939334519317
-5.210146573534958,0.6412005451452363,0.03555503294403748
-7.307339542000627,8.01396904396218,6.631958387284254e-05
-7.5230076206336465,9.79239603265136,0.012380257999353585
-7.172591028795996,5.9646518098951695,0.028831753649832023
-8.824399908346535,0.7058762320023504,0.016259535705305767
-7.2000864938962845,8.209193304734436,8.740950811017556e-05
-6.778630632541417,0.18146353827852346,0.013898074973597331
-8.141718301874187,1.4749435703342384,0.04399696273723639
-7.653426138711197,9.065389760966859,0.04325324386737569
-9.494832590940694,1.4584927085554822,0.04010136240033139
-7.861018607334188,8.682558388098503,0.005958014579946058
-8.987832540168583,9.025776951801902,0.015926716582129713
-8.974308729372598,0.905878711993392,0.03262108781656194
-9.718891051109203,2.2579131851603607,0.009425870431060919
-5.158944609848222,9.347167791434735,0.025594397315171304
-7.803089351735562,6.549204442534836,0.04740829655143863
-7.8179428657253265,1.0192270779155932,0.011531363206165258
-9.906523294231071,6.726182459661577,0.02482299042767083
-5.07352659062334,2.591011993592187,0.018343504256821786
-9.715639540275701,7.142058148821558,0.04906555297692769
-7.3590825769360775,2.5097323822716766,0.019349161593295812
-9.404941708911352,0.12266571075733923,0.016617208449378428
-9.72128255997713,5.516243272451861,0.0323343650581977
-8.828521097393203,3.0121096974279995,0.010617730862022268
-7.354198948748726,1.1250489125512864,0.018305483282061986
-5.625095712275019,0.9258153596064389,0.04162116900496946
-5.329820851929464,2.0836187613476556,0.04177357904812438
-6.723874054705481,5.178419888711119,0.018381894838597996
-6.790045806967804,7.086185225798239,0.035668150342746056
-8.029884857070996,7.403295166926018,0.034874911439046065
-7.7015488446199,5.545274845763685,0.010625079509919755
-8.604784781858143,9.13678086732791,0.024092511453196144
-9.216328340424823,8.925568935561058,0.004120967634413802
-8.406641251842188,3.9572605818357887,0.002787564253154973
-9.798347799946225,3.5702869455664485,0.043805793931795
-9.850398670979875,7.8640514515689555,0.02919770357162753
-5.416050072106455,0.10289021816372812,0.022105475172000805
-6.896354232052307,3.1476720846665174,0.0001561709689426816
-8.458088120386261,8.017695312321633,0.038469674131504816
-8.87608563876319,0.796292777573474,0.03144043112173996
-8.964344796178347,2.592805725004853,0.029239005947306204
-7.095126161469064,2.052149029715178,0.03403015576464648
-5.55670760951339,0.3411947462247866,0.024739457171277138
-6.172896325639654,6.373224217968771,0.024681553432877132
-6.479559234545114,6.178183027014189,0.03926191229319642
-9.272715544662029,1.7339125521908383,0.013484386647589552
-7.810125144239296,1.260016190449289,0.029177984331161384
-7.150236720462925,0.41173352022441545,0.02436386260594081
-6.620816236555885,5.864386815038031,0.011644489082091786
-5.42874169763481,4.933420714496259,0.03824707516700741
-8.647297934547309,2.177041600867442,0.011069585730052768
-7.6171342474894495,7.082346420060542,0.038705926526393236
-8.899568666490556,7.472010036146241,0.004045235541181707
-5.114452256228401,1.0101945580336824,0.029730050434085244
-7.52642763262075,9.82805688675118,0.0039051208663482607
-5.465452124642136,6.935120553423256,0.03801386754207656
-9.777779285923112,5.893504185681469,0.014673531059151153
-5.4907453072553905,3.972360180597657,0.008351047218456453
-9.445075756384963,8.595126874019376,0.0411927135997138
-6.045821098075754,4.817949788625054,0.03528075139620623
-9.897205254884454,5.155272615938745,0.017570155815864474
-8.384853319575994,2.548708014762986,0.009159497832024256
-7.07581895443507,1.3829903915850406,0.020718977590163425
-6.636872450706086,5.348507166230161,0.040578063392721145
-6.327601312646392,0.44352324047720715,0.0409108123119265
-5.066081994593728,9.787898793925514,0.03887394805512305
-8.448326460159116,9.158120186935912,0.016898901796427047
-9.352227680531158,3.424187531066827,0.016438434534836288
-8.364890864938609,1.417632033597187,0.00868824426254946
-6.222282045030407,3.6943595165798673,0.025844530213597484
-8.020722490621672,1.9881780194271415,0.024480156782930668
-6.928687389993842,2.2669016873875703,0.018365242264892674
-8.12127859760082,4.633924965704859,0.029544057890696196
-6.122870270460621,8.065394570631186,0.02843958579358746
-6.794545424548257,1.4985495461798093,0.022784423852491492
-5.37918444184535,3.695335315082593,0.0018898174931584301
-5.955972777772604,4.271552549672208,0.02131713444171081
-6.406392131805722,2.7616777436769393,0.026336891829370886
-6.857619647269875,9.847623075672086,0.01323515126822285
-7.390691082969001,5.725176146751128,0.026312623891520705
-5.53199532321932,3.1303792639590955,0.024473206513135115
-6.704207247610195,7.928412679209509,0.024725826174214312
-5.498692795071099,4.480409292161733,0.031262794637139234
-7.795699987175664,9.747404379772119,0.00014151374194104616
-5.16804478678629,0.6369146098328604,0.024273746311525186
-7.536854140283777,4.400895632638849,0.00829308446394092
-5.6920578843918275,7.443725111218164,0.035920953136104446
-5.284623584924055,2.124025875476383,0.032131291390542584
-6.1536472803023905,2.8707694484887183,0.044727687961257784
-7.553485503214626,1.7492568621040472,0.03126531689970024
-5.239116179224634,7.28198131546592,0.00015470950599699165
-8.829326161491611,3.2015899350064956,0.04775513748274038
-7.920152727824622,6.257974512871422,0.023771111667878327
-6.10023028478392,4.088387824564581,0.0027736298449755727
-8.602240006259102,5.250471369416379,0.03968962132323006
-6.260869821688252,6.811521454746787,0.04147408587304291
-5.3462161307602845,8.837277483179713,0.03070728925891621
-8.506329341291877,2.041261897329445,0.027447215163591013
-5.5119737209886175,3.0406670265169513,0.024599939399976897
-9.824861613884341,8.389271717848775,0.0016035808009174036
-7.949178964019905,2.552197787821994,0.038892835061720775
-8.514923619238333,7.7744652255822,0.019302265963745298
-8.896949251653332,4.720476852748834,0.0023211683320760626
-6.206771224495927,2.039394892510853,0.03901821317623986
-9.11423599394898,3.400494134066369,0.008258846809864507
-7.268945877561034,0.05472440307678239,0.04276020851513401
-8.049086074453275,3.8782699245231402,0.0450909103433896
-9.712347346903615,0.4757753324469216,0.009301314170116209
-6.426556895190114,9.939361743577628,0.046219995372452916
-5.6807475992748575,0.8260405764015555,0.019562876325674577
-5.337713781066063,7.382332334514716,0.026637278153245264
-8.928731641680717,6.1818080111566065,0.048200842572944866
-5.95408191864198,3.022904507668114,0.026631263930452294
-6.760830972635903,9.828004807757956,0.04435807513843126
-6.629136182806871,9.414925591957285,0.013011929542945966
-7.78043920949016,8.557135996542694,0.04897228213161115
-8.014289348154973,7.79033599109474,0.03890481618843189
-5.61493070833342,4.807383560810483,0.02467719716892837
-6.803683520568812,2.7061481009197195,0.002134055999777601
-6.214363892115541,7.810663988299138,0.012385039314752884
-7.645059675327506,7.211479203526057,0.047923941148324656
-6.791610046282114,4.973444960897268,0.028994822127415998
-8.321949348307859,7.112449423595855,0.03469430080660678
-6.691768911426038,1.837724277998214,0.026300908105048815
-9.041868922061557,7.0269781276154095,0.0018717016373214713
-8.240449245319056,9.402955315165979,0.009738938503807743
-5.194478265945713,6.636067876165416,0.04987829630842185
-5.761168053795618,2.7361567604321846,0.01846250269294698
-7.75602602951503,5.959458018834479,0.014683518975736588
-8.70192615108076,6.749670536161402,0.04467985222966147
-5.669270047957104,5.883447836899015,0.015123183697106635
-8.275852419577776,5.570647503407252,0.029123181127703426
-6.407577305377449,5.624746018072097,0.04524996164485711
-6.349341912408857,6.251046316238744,0.006001772115232246
-9.67783734249609,3.717831709815216,0.03324661915372222
-6.339553085487512,6.3124059015395115,0.04116566620634732
-5.4041907744893,3.8309452746760475,0.04002333624955272
-9.425836847770945,0.2326295125406519,0.03736986583506812
-9.896959900636755,3.740224655561337,0.04366021724028527
-8.93487835320606,3.5393663181676107,0.018307230875039743
-9.789162775731675,1.1903900215955598,0.017364958946242272
-8.831159173147551,9.454298329383555,0.022996772609725553
-6.413429648882019,1.0778211054049613,0.019498473437903358
-7.571195101630227,4.680245878674164,0.006980469699049358
-7.18884239781764,1.58872080668647,0.004518499358813377
-7.691981129523813,0.7229052056144836,0.001553845352627925
-9.826127020617736,2.5715770329081433,0.018710089152768596
-6.645318108109124,8.119836703137809,0.00918706833043011
-6.991426731448584,2.2721334575350207,0.005771484616212225
-5.581535641121109,7.634154672152813,0.003910429244166203
-8.065236423082588,5.181258070673938,0.03721023788488238
-5.052310591696663,4.421528876611143,0.03575465500653245
-9.025579974456656,8.27962137296183,0.0077561512713579086
-8.077461487253391,6.284146851627907,0.006635180053954842
-5.010887628189463,3.6473561836031076,0.002779528901838402
-9.934098597620295,8.229177098014244,0.025038313194677482
-5.530458477480773,6.998855316723795,0.04847174750771832
-9.775794238125702,9.186350337968094,0.047858999949336845
-8.427098963098306,7.202409780505868,0.012491308465304374
-6.4818905732911745,1.3691193990185857,0.0022023690162483512
-9.860912162727809,3.055839564017122,0.008826646399469845
-7.8420881309077615,3.562880549089985,0.007615022582171744
-9.23945597491764,7.9369087924069905,0.045215641681834375
-5.149064452718167,3.3667213492111294,0.0038663471517090043
-7.629480755983356,2.3840050550253977,0.04673313256882869
-7.256243212991619,0.9776243586847899,0.03070874991338481
-9.749234314524967,7.268860125088761,0.016248635522490763
-6.299019080656953,2.9100182407837902,0.002689212328022378
-9.509877590040501,2.8673113621598634,0.014328870153607481
-8.476557035866318,3.8938363349214953,0.04096377726356828
-8.417178680701447,6.216468575976551,0.01397905168637021
-8.720464494369677,8.685696848899232,0.006205966723253043
-8.925971322608222,7.7988847366692475,0.015478653776361352
-6.5978740605868325,4.316658890682046,0.020308476370898595
-5.585005612550681,2.838337958531926,0.02116100446903445
-6.756313531286146,9.594436585830284,0.02270167301610883
-5.810371114116112,8.305102497423665,0.01863590270614099
-6.030597997263052,9.712907193436534,0.01828496639016789
-9.47986847450257,6.288763730308503,0.0314732873726409
-6.832496557468987,9.26087087465549,0.009508517947166145
-5.4430834642742525,8.967856431693617,0.03378639302381926
-8.18081104022351,1.177412750595257,0.02972399748758477
-8.614499685651662,9.199070223611397,0.0016093349565720562
-5.351844469173134,8.06434826634957,0.029864046731464124
-7.953751864108351,5.76556196807433,0.04039091826718107
-6.110975023326777,0.5380486127201056,0.047698832088852366
-6.658930287867593,8.30613460635506,0.02044014794006544
-7.157684671977483,0.3310725248867541,0.043459086850158285
-6.857614682531151,5.286350401446594,0.010080168989166256
-5.667412540383041,9.536989064035993,0.0218440898029503
-9.731902510220252,2.25516685766163,0.03686211161409538
-5.020949295869333,5.874948493985677,0.018780934631413983
-8.503510869886597,0.34819055051178993,0.027855824557486725
-6.927943207902011,4.709689788257473,0.003959866917786842
-5.205847817667468,6.860266906307961,0.02037388757125451
-6.676552531219666,6.006750538630984,0.01799843802526025
-8.655851201321045,9.425442437074572,0.02993373204445808
-9.967409755345434,2.801430193578809,0.015284311620303538
-6.425028689619319,5.736383394557439,0.04200618097354591
-8.958112957296885,2.7059863203742793,0.04794230290005119
-9.169425342972643,0.603424977140109,0.01657945908761437
-5.068806069820019,4.918936204045059,0.03331103084791085
-9.852195042157511,8.833700317467452,0.033845893669718796
-6.881685208385651,5.641455761958173,0.037665662392884186
-9.648062291656482,0.2677750599348927,0.04225598309036552
-7.407611956065887,9.2541990526828,0.0367231297494174
-5.319506810767811,2.577128782767084,0.03142578528065894
-5.05130865208998,6.724054158688651,0.039344053619952496
-7.359747183804317,1.5730469147882964,0.03191223478693713
-8.434971180300828,9.345310417689594,0.002521404690452001
-5.119704229118294,2.5389312996760682,0.004593397475741473
-9.067216222710574,6.008820138972827,0.03165562174116441
-5.428821031148383,9.336853235132645,0.0022390778138425883
-6.145702249959706,4.892575016686637,0.017150251398606493
-5.328216183448039,4.244148185115515,0.04069742724064149
-8.989652358694372,6.716073659652951,0.04708612972213685
-7.739318808919445,3.674046609831713,0.019848304300104265
-7.24758357059442,1.7258678695603358,0.02290799499792412
-6.966367217606459,0.4592638721661846,0.012030119031370051
-6.960918776564481,5.905855801306423,0.03420922642438105
-6.807779418730229,7.039191725735382,0.015958970633150972
-7.555777728480843,0.30346846597116617,0.01411874925430472
-5.312626076361279,4.956392585955082,0.03724060983679741
-9.417733863210138,9.812485062310117,0.011722442630095798
-5.266445764531556,4.301004797932055,0.03790250413265943
-8.284481475360016,9.35736754240601,0.011247800759797056
-8.237894599861887,0.318272196990832,0.023111768207329898
-6.587197431703897,0.21704489908038527,0.007220878660229468
-8.53432883421612,4.822647871205387,0.028529839215337
-7.189778249105442,0.6585265179595201,0.04146836234311552
-9.122084754035257,5.421345413285533,0.022329912711262303
-5.945672213932415,3.794049284937233,0.03489078605606243
-5.964913289923934,3.7738158441132033,0.04110516610937544
-9.356053555753261,0.5790148244968418,0.03792527791639707
-7.89807483026299,1.9946019629353295,0.019656897845233296
-8.309579868235181,8.387027981323152,0.03047827770824424
-6.337664067887172,6.699384812841924,0.02145478986487065
-8.945378257187606,3.041072698697438,0.00921474529813064
-8.692200604084164,8.556426493015277,0.03258674185729709
-9.610726415333877,3.173420348227162,0.009795819279845902
-8.477543511282324,0.726111217439791,0.014431671565759453
-9.976829304992686,3.3467495721058924,0.008577119209392182
-9.14583076768497,7.841471848595435,0.00572187550875305
-9.027736821395834,6.8624443111851505,0.03651455193555388
-8.212079132089926,2.7577143579304964,0.020455489318460085
-6.767472081861509,7.418806927271904,0.029337929399278807
-5.872799857780029,6.221892992389705,0.036274130672188876
-7.835593021958613,9.914606065864596,0.03526623428116934
-7.67256306979423,9.500702682808193,0.023617324394511238
-8.029777193400406,0.08394846630038755,0.017542405045669462
-5.513481855701742,2.9600577068213276,0.014862875134491266
-5.6744629565196645,3.828336756609696,0.02748062724639372
-7.4805065982119245,8.153539224543781,0.022641808381155662
-5.669802186117623,3.0220291922463414,0.03874065647206171
-5.91734401863887,8.069748689453816,0.032466647202885925
-8.292293843576912,4.574028523176317,0.032668868582079146
-7.688110209706352,5.72169035216996,0.04854635076201666
-9.398143735316305,8.21167241254305,0.01079686779708975
-5.3504098290221265,1.080083495788815,0.0017726418841618797
-7.742612865920646,4.714007548025262,0.03756236202067557
-8.443456056926347,4.602558377728064,0.04634701485947468
-6.787318527877364,7.800819493508876,0.0011503144940689213
-9.393694052997123,3.754024710000332,0.04414208273315942
-7.056464970738004,3.0442692566921137,0.009134260459371563
-7.5924953467125444,3.652935307112192,0.013307487736836083
-9.67642470142393,8.826215933029319,0.02393653888145827
-8.019965721699435,3.267068219243966,0.021206275573217467
-9.479837599120298,4.592527654105655,0.005737848881457181
-8.35565413123096,6.864587778185691,0.03324958493314955
-9.039941301959821,2.285413646095489,0.042327282796715826
-6.865306865224247,6.560156705831473,0.027375547865648244
-6.695618884628509,8.501214285314408,0.003438779011174198
-7.874616310021141,6.459739242269437,0.007335079811327478
-8.198450267187308,5.926589320132,0.011213179060219958
-9.893954380938128,6.99695549099094,0.020308948496310264
-6.805420483423408,9.831383937294895,0.03824320631780939
-8.310917521453236,4.772714587980619,0.0029163099271379833
-9.191632694238058,3.3286262763929084,0.014658554995953666
-9.370511127016371,5.177818287465233,0.012423229278571386
-7.181027192700341,7.88171636924861,0.006325881902523656
-7.381918797477741,6.833901076120158,0.006597443414354654
-8.241584807586133,2.311723153344507,0.030542543118891798
-6.91418026178563,7.611994526505162,0.01337930041223982
-6.821597918807322,3.440090685106573,0.02078543630994465
-6.641333086362406,1.7930351107905085,0.02605963560114686
-9.916573066264583,4.181367088923525,0.007384634769818366
-9.574990399057985,3.5537485795490866,0.004064663894803716
-9.148526903339704,7.591500373427971,0.02144574488574118
-7.041605156674681,4.686543333480454,0.03370019242195248
-9.495332057531815,3.958259184584251,0.021336708943351657
-8.947160159352492,8.744895971121688,0.020832927258169733
-8.877836153255496,2.653856358517308,0.04262958193356006
-6.824753784919675,2.707488621327058,0.021337909503478993
-5.991429488938125,7.399848538493127,0.014730221457690857
-6.626074969737559,1.9810582088903284,0.019360603080777083
-7.834477581679241,2.224557716144473,0.017664646746958165
-8.122988606023481,6.457035433503403,0.006274167894722194
-7.713089550669004,0.5298871023344776,0.004399972855067336
-6.955849976850569,1.9128448815888766,0.020420696603466744
-5.447811831940121,6.450920431005861,0.03129854432588946
-7.818902739324381,9.482160904270579,0.0077011617926143194
-9.865062691959146,6.141434029017382,0.037762776804025136
-8.561686275996818,0.37776296058198655,0.007350472397499936
-8.657923017501966,8.648729847577982,0.018415832469844552
-5.886445300542084,3.402620599443884,0.008637462912474103
-8.02245402886613,6.980060146695775,0.04308646867241693
-6.900897864289956,6.679153516113235,0.04472197990203905
-8.138251639511175,4.763836249930865,0.03237756228881113
-8.532404196575632,6.980050723908407,0.020168448975556405
-7.239980354414293,3.5215666589836836,0.03322407071832459
-9.031922432199533,0.02467915860425607,0.004164459696132711
-6.236731870982162,7.512259668146192,0.04428057757052918
-9.241437396893636,2.1578547290548555,0.0201246517422657
-8.4717128806082,4.239749630943836,0.009807539293199309
-9.220964191175463,3.9604218138191802,0.035443590484202224
-8.94801577514655,1.1491901280642758,0.04623878870573224
-7.232539636852459,6.064052500024111,0.04536526188505065
-9.027276724233365,2.2493194602928157,0.01507949899758816
-9.873406366006956,1.1182556189239778,0.028378419843570975
-7.165955828826586,1.0257415301107653,0.027756122736817893
-5.66624570614401,6.821221362718691,0.027112668332657464
-7.101469602576763,8.748033829561138,0.006391462890010241
-8.498583541898949,8.040514529531746,0.01622100238590451
-5.76022691405322,3.281271363637651,0.022759530458757473
-9.799777248358343,9.471633135259324,0.04889658884360963
-7.858217853433268,9.579906562507318,0.04040714360952391
-5.3581055335615275,3.6904550400190517,0.029195879616006254
-5.572818584540456,6.821583331873111,0.023382289706767312
-5.243586527103805,0.2176221139261325,0.03176305346718638
-7.843258215827133,6.433550098180662,0.014706240271319932
-5.557769263821159,1.570999145615286,0.020326392228082437
-9.714566332588552,6.9206141353172415,0.028951811116093924
-6.397673809390771,1.4627939141444657,0.014508800830293423
-7.057717622046077,8.110658230584932,0.031368707002447836
-7.125640733179507,6.584054818971406,0.017019838126396687
-5.970906598619283,7.590437869502786,0.01833234345207684
-8.071886736781229,0.532413888286335,0.0024545751358967085
-8.438345688549855,8.208005332679052,0.01673327405459917
-6.204358086924743,4.616478740215367,0.005021618296014558
-8.313764472924614,7.620028265737338,0.04013828835718283
-6.349210810143896,2.1673560504843383,0.022531623580126975
-7.320152007266399,1.909058487167583,0.047701893782783646
-5.844061645192703,3.023222100649469,0.011119044887416142
-5.752502931147419,2.2611385484788906,0.034778676452211305
-9.899940539028215,1.2559234859252832,0.04566371947752329
-6.119276431740321,7.33942667131442,0.02756063897156771
-9.633848532559107,8.202084872150913,0.004914354909979119
-6.654574594378579,8.522656382342022,0.02165960750077932
-8.638406840049317,9.157861868041554,0.03663426485461865
-5.105759190548124,7.244750656251989,0.04770917008729067
-9.934167153953563,2.992103632409786,0.009474254255339182
-7.539359635708159,0.2869188522349997,0.037031704707571445
-5.607265891141636,8.541607003769512,0.04753324681950194
-9.382170206012775,4.790985144884089,0.01609349659028644
-9.170101343307904,4.744736179281154,0.027672142120489098
-8.502944257779662,1.8605611246072529,0.031340945699179945
-6.442922971987695,3.7504300361869647,0.028730027688205068
-6.465036411941515,9.485350851991189,0.03935456050935167
-5.106211393092707,3.7785894573681844,0.02584231347621422
-8.63602867115883,3.242377883952293,0.03946659328976776
-5.808983116102098,9.151484284412499,0.04345388428579666
-5.512440823505902,0.5714498074959207,0.019290060905609602
-7.883814390261906,2.769686015078263,0.0463217365518581
-9.986238332494443,1.7202799695030657,0.019348974075542976
-7.818523329031975,2.5701567885804923,0.043820373396566734
-7.423664404088095,0.3187295111667543,0.031114465087200716
-5.178689478098137,5.428527335810871,0.04483550756770934
-7.9925356085345864,9.510361237069963,0.029828755092224053
-7.348191356147231,1.4810975299623974,0.03075245819714739
-7.887175756161984,0.1130271935707694,0.03260454253526956
-6.31535397634699,5.6768673602579085,0.0007330408106253517
-8.619727315196647,3.2470769036405023,0.029722569440703436
-8.707253122245012,4.945138389358617,0.016118001984604054
-7.455568182410887,6.271847869362153,0.001568940352959769
-5.167375956841161,1.1632189983704688,0.03183976503206764
-5.911879357492345,7.626849571932878,0.03869750254588811
-6.602973478979058,4.615337036734999,0.04301829078515614
-9.530345518580368,5.548769771357326,0.03707968989342527
-9.14274508669899,3.9718749900934736,0.03058014350244931
-8.04793858446271,5.439880003040381,0.0382283218640477
-5.94231472515448,1.9483650581877598,0.030172624669650924
-9.543048996092637,4.214639142973765,0.033747825408211383
-8.855708061202154,7.164827281499566,0.01484051650495118
-7.051609911472425,9.436581462680984,0.030199449405697278
-6.7459723057690475,2.928952991626168,0.031753527565477994
-6.333034284288449,7.149606108386701,0.005679649388621539
-7.3955497675657025,5.1625727339656,0.0474703637450408
-8.897133151856291,4.197203815384886,0.02289071757966544
-8.165275939095622,2.858451769274045,0.014430780381945441
-8.14397116796348,4.1370011808476335,0.03621425053701062
-9.78437111697389,2.71392538005491,0.023116246516032463
-9.416373517269758,8.500643672932078,0.030312117309446038
-6.38970575316788,1.922928204036095,0.04721237928750672
-5.937892213887187,4.239005841134363,0.021662119388106638
-5.765631857834105,8.668057151005687,0.005537430085523648
-5.106404303813953,8.838189396835274,0.04418498090627021
-7.937504764286137,0.9269564769017635,0.035632838630130934
-7.192176495842757,8.494008374640233,0.04376550152947007
-5.196430808191713,0.667095170650911,0.029134727355331985
-7.571454392539006,5.066988908792177,0.019635855195708343
-9.086911847272258,8.32162919273794,0.04502131573670874
-7.561966616011268,2.6644989047266754,0.03773379362615459
-7.643450505564484,9.93622885138749,0.03863015800730765
-9.164358955201246,0.3112170722337637,0.009239277609522084
-9.901575763740695,9.965571650633628,0.03595225689170355
-8.265643568869981,5.586073873068353,0.007483497625343583
-6.447508287868013,9.115577309339514,0.006097690816316209
-7.726501974174142,0.3902347982336818,0.039621293122703474
-9.085905845529282,7.582147741528026,0.00376422402753574
-6.467160092659533,4.872916009931033,0.03890428875506527
-7.818220038088697,4.184905872055591,0.004153423678667933
-8.222370885673115,5.975715076059124,0.045026652048879914
-8.209773526377205,8.335964365328655,0.017947722675405325
-8.615179734806015,5.11160987815491,0.0033570771178151773
-5.2993219586106575,5.601928444383772,0.034684045291021655
-5.602006794031617,4.465785492618231,0.04731611773538838
-6.198176066451852,8.302618557619683,0.030574142875316925
-7.402125879276559,3.8219962408552344,0.002755355425125261
-5.636348077983114,1.41956559375073,0.03444972331383359
-5.8994561922846795,2.7017245316498695,0.0019157805779617344
-8.878337341149944,3.958864522052148,0.010557706217721258
-5.94743630541902,0.5217616942664272,0.0044188042609125955
-5.713605231390768,1.3272822088236946,0.036158105481856294
-9.451359296537762,5.67401133866402,0.03697390749733883
-9.089942653252042,4.6656590346248095,0.042130585585686026
-5.842895385234543,6.108512647606945,0.016070635868172364
-6.7331268889579,6.370724296808045,0.03144277527532052
-5.931392449278152,8.61501219957958,0.021375602525571354
-8.760169233926963,2.78637654169965,0.037837175699594855
-7.3168566221142495,3.6255609631249253,0.04682078938880663
-8.451268145256746,7.67215417603644,0.047033526272790976
-8.848073596661106,2.697061705303303,0.00862516704009202
-6.425979376533748,0.26280611403410536,0.015898217664929538
-6.173937553506171,8.835524231141498,0.03203370404923616
-7.766331552862972,4.919699794754504,0.04378973263238995
-6.9684400369047195,9.404116947856965,0.010598648972548686
-6.457477113423931,9.531904951859673,0.04228738440259542
-6.2215146895161055,4.691937672237458,0.008345978262145587
-6.5796241721045545,2.2196432784833267,0.021723288765027535
-7.469859828364042,1.548818935993883,0.03505088473229901
-6.450852317476456,3.6530101943108684,0.04935397196321667
-9.40800439858948,8.91102161148379,0.040935741260626476
-8.316425577329696,5.741683116915502,0.004358247872576909
-5.995761278007462,5.994910818447602,0.03432492683649279
-8.725621243962888,2.680189155671796,0.01470285520879902
-8.651994070415851,5.854014733935884,0.004664473917304068
-6.002986341674082,0.7698877752409505,0.016036369095681298
-9.42734776444327,0.8204514788300599,0.03322182562696662
-5.207103766763809,0.09453630737486396,0.018908968504132036
-7.898194003821809,7.081417595529366,0.011032110167705073
-9.343910486341624,2.681058083263234,0.005661365473414188
-8.831249992802242,3.913754278498005,0.026975711758873245
-5.972109968521055,2.516300975400049,0.023683684021852405
-6.541976729244179,7.043401058670438,0.045815002399359955
-7.448036408669081,9.45667899957444,0.04520805678459658
-6.6904934366435596,4.963531902540233,0.031316195302172355
-9.212862219118552,6.100835686360439,0.012245699861575877
-6.376728109869012,8.740954178298914,0.002436375487147652
-7.97491041793451,7.47843055289459,0.0007368953111156041
-5.216245808999887,8.532946342862376,0.008005164032688283
-5.612009607848268,9.197951530566202,0.019209125296979587
-6.291588504213709,1.7176805615036406,0.019810347695278008
-7.186600089442654,0.018291112274633203,0.038012411601326054
-8.655252989496175,8.414431457727687,0.0457674706180585
-6.580817027342186,7.8599538072887984,0.004427555866165534
-9.107988191761283,3.4199871865193723,0.04981426075288842
-8.47070936584249,7.079663888910714,0.027738691635457655
-6.2013308066059265,6.437113691806098,0.02866060243771809
-9.293683118927293,1.4570070979806438,0.0339282217472466
-5.569209708719754,7.199505089438856,0.04128831906022325
-6.921732560956119,1.5879663948640876,0.020152812375735768
-7.1334602184197955,9.700885584564759,0.02617979955941301
-9.088719347188823,1.8414821173276619,0.018848596585660446
-5.901041682850741,2.4344862474660234,0.006978402963893921
-8.333509039839345,1.3947839631441206,0.04644074104933743
-7.982362980543687,8.829429532947243,0.019198258822038506
-6.4511423376055355,8.45432211770571,0.027239957501562835
-6.85725294472557,8.329036593547164,0.011308981921863394
-8.31155044150524,6.431959695771199,0.01844236649966684
-9.302775149843695,9.323724141368453,0.022778522773170135
-8.706244762646183,6.903611553291072,0.01579735057807582
-5.463703745113781,3.213464940157582,0.0462712711888323
-7.504809187972972,7.453414107528275,0.0426222074295356
-5.946606277561068,9.710530870127513,0.04950803504495014
-5.830035704301396,8.573827454922831,0.0345562329293586
-6.87503291465146,0.6978992908334669,0.011389992744474282
-8.987622650705543,1.8376364173830007,0.006025609907371038
-7.404127833843855,2.5429848871058436,0.009348501394647369
-7.640584227497326,7.2544522253907555,0.04329671892733399
-6.934089955882663,4.456071373232572,0.019649832559028853
-7.530764966702679,9.302165722873788,0.008222469320935228
-9.55912909122317,3.377183255882664,0.023868306577715655
-8.10851515827552,9.718180753842873,0.007893407163902256
-7.84049120785721,8.095870028300423,0.03419497937903164
-5.556849949266116,9.789369657688779,0.009934973545420694
-5.666914151168366,6.558635661725632,0.020293746650073014
-5.757327157612284,4.618167876956688,0.03849438330548066
-7.756704363708324,1.820873393524065,0.03649766319431124
-5.16947733275652,5.070563946841401,0.024405743928328463
-8.924647389032021,2.931483252476399,0.011936380303658956
-8.970365373731862,1.6979696172707803,0.028595276874734628
-8.797173884682723,6.224584219482025,0.0023664071176352553
-5.945326383987574,8.068871808846493,0.03878736184240756
-8.409575708898647,6.034064842660738,0.01887899783785358
-8.649086036762023,0.6900360580814535,0.048442036670441946
-5.057016031460505,7.517075122144715,0.015393985261576827
-6.727126798241095,2.762345341853134,0.018880588814653577
-9.464949486180938,2.425391305136354,0.010608812487152581
-8.71566216773906,2.8073218773381603,0.04515850624068338
-6.578974707321965,7.087241525064206,0.04889251041807194
-7.094311173388189,0.9694582999836732,0.045280471909088696
-5.987890154964688,2.7804084928416186,0.030088227505901646
-8.01714553182573,5.300059448495268,0.006563568300949352
-9.437504811144464,1.131611290067065,0.01654941200447743
-5.830804690619914,9.614242179891118,0.02344704258351979
-9.047964770763185,9.245771985742552,0.03724660578487747
-9.84168832876364,0.6871922001131159,0.030638448581782163
-9.58808142537827,4.581401457891461,0.02436822894330709
-8.747851763127567,7.688218576585681,0.002577381746894281
-9.245584259155482,8.210528641888517,0.015023663024177037
-6.523216541624983,8.434082954221484,0.03762028604474038
-8.186581294740165,6.037408901455943,0.03205521393390217
-5.672443795358046,2.4736900100944217,0.009291704770951087
-5.640200513681723,2.466386634979263,0.02201945156328445
-8.508757824122432,5.690369889105437,0.03603228581195192
-8.463293601566019,2.190455781641064,0.023963187317353737
-6.03578435490148,3.0353139846575274,0.034981206222412346
-8.974937422343302,6.615896095916094,0.019690791522038092
-7.924294938921603,9.587784056521153,0.0018429937550600796
-8.412809859875626,8.821431398999627,0.04728274412851833
-6.928247378823475,3.1113396955487262,0.037640641317547845
-5.4922375512257045,0.7285987579710029,0.0324010216863874
-6.420179395593376,3.717162618760683,0.006848230750743922
-9.278817005462264,0.10462745844959986,0.017351683946067776
-6.646663770935182,5.8548474791912035,0.021212360876089655
-5.407094212920539,0.6874392558226072,0.0008908236493023691
-9.31081109831352,3.213276983488207,0.024706916638860623
-6.4260358839667955,7.179456196836044,0.01689633532763369
-6.619582453799598,9.430189436500884,0.0011748888883758803
-9.112998201041396,4.414146752815091,0.016886436217780548
-7.3511677481915765,9.483203680378661,0.017747229681138038
-8.774667298769224,9.97553714725102,0.041117712484468556
-6.208228328782873,9.863539749387636,0.040824957866506445
-7.398913982175005,2.2132891138490827,0.01355643806403737
-6.209791706418296,3.5825373328042778,0.047292605465448834
-9.585021281613816,9.058469860202528,0.0454834785526097
-6.9149034203080735,7.148780693744356,0.02952963795421601
-7.254117427236428,6.378165125481473,0.03560959648119814
-6.8592361771777455,0.8521456149800999,0.004944064347966232
-5.71958052173745,1.2048124441515107,0.01318383787956287
-5.166031020149302,2.0715064170024777,0.009565598154165206
-8.999632140813873,0.43469647085294105,0.0033237762305290686
-7.371843811491477,3.1218776157101438,0.0454881295157022
-9.11677109025634,6.857507020869592,0.005558566876260346
-6.176016435045482,5.165809140863179,0.04171231978094456
-9.862001377530458,1.0326665246861944,0.043109477326375906
-7.78960769392315,7.916730759688142,0.02619510755860678
-6.868649982242675,0.9555923498761731,0.011905074416692113
-8.184979438482188,1.5419233424407497,0.005030237091064838
-7.0477325271099165,9.371871643308667,0.001373291920477271
-6.8089152678883185,4.279487666298745,0.03909604875732472
-7.365533624319518,3.767026614266488,0.017188419330780524
-9.904065036036155,3.500004781538374,0.006205604652143787
-6.786097853144102,3.422403366169997,0.029746629844390717
-7.400954386344274,4.180162061707623,0.023146792679178796
-9.522170902422376,6.540673526817493,0.025046073717606157
-5.396443488425132,0.7386877277937176,0.04564391806043234
-8.158518110273317,1.160278505018959,0.03777066118413056
-9.766262582503538,0.9438616454312754,0.039177145000136804
-9.238576040750637,6.6170070956665805,0.03784118918043175
-7.106818764242661,8.291239431289792,0.04379034927554479
-7.708103970725674,0.5630857863920458,0.03930373367282221
-5.2638923193340545,3.641457893990141,0.02610318423411856
-6.510386755111421,6.736554795760413,0.02294068508394514
-7.736273451675704,9.497043475307233,0.02238989145086578
-9.712370390387722,8.863583164267682,0.00012848714944621586
-8.542061605886735,2.976375609839381,0.03223147412025172
-6.333539542783148,8.172882070337597,0.0019660759988297917
-8.86995687324438,3.5369558131773626,0.005449313083887553
-6.520976024252625,8.65612087367049,0.024566542280642645
-5.959427622380191,4.306918556030003,0.027453321287622984
-7.2766933377806255,8.883145300155968,0.015440142174208395
-6.581123274090939,2.728335336247736,0.040726955846189045
-8.770749257236984,6.410892765653414,0.03769660884216173
-5.206718803298834,1.5734412444538726,0.017625356708349423
-8.897113495951075,9.352373260363454,0.0001574840521349541
-6.351508492126632,9.230577240879045,0.029747501739687113
-8.983183982366441,0.21879551837717837,0.014313884625413782
-7.574618326167551,2.5924932581489335,0.045650989622844675
-7.983727906182025,9.284692525916967,0.018295962973273384
-5.1124017078965025,9.870350807549215,0.008031808728486151
-9.883699439529105,9.938982862602767,0.0032794422636946265
-8.918585532125928,7.630055864424009,0.021076623369113912
-5.077047142893122,8.402147750390371,0.02426251807122176
-8.318065013727853,3.3232012917247222,0.007572743692007323
-6.124486319548742,7.404815484408555,0.012830100944491713
-9.907174565775517,6.051306119484807,0.045470313053598055
-7.556860318969899,5.511332021962963,0.03815082672828546
-7.800200653678139,7.300381199157329,0.008868921065442991
-7.938308258298084,6.409852564935921,0.048277579010111614
-8.2101386905052,9.604208095889241,0.006725061841937197
-9.07377340977699,6.257793124939565,0.030552522893588802
-7.832122191358103,7.567598566832631,0.004837853834282035
-7.729969148388783,3.485108914704144,0.013425570651924313
-6.097058862181852,9.404514033453186,0.02769310296154793
-7.693853676012383,5.289364615022691,0.020036541620328054
-7.4201841607266035,3.1542432776318763,0.00012603715288675988
-8.31459643830574,8.967915532178324,0.017333155858778156
-6.2457024737963875,3.9418574593070854,0.048621048352641874
-5.957258996345732,8.332266102421267,0.045225777233504724
-5.021582080740512,8.195663265635982,0.009467923549350854
-6.211900084137519,4.427502017292469,0.028485148830536683
