-32.15624711796224,5.151071513239796,0.007959386824343048
-35.825754603243,9.799350796174567,0.0005747270786212666
-38.26681171294746,5.481379624006381,0.0014067052516967794
-32.85685805245033,8.527459518311382,0.0028601389027142032
-32.745819734118186,1.3330120024378334,0.00277813846585551
-38.43710551606708,7.514125473611491,0.009460570720110905
-32.18276451337188,5.086315676429561,0.0012181627010769947
-35.74213652466947,9.617698758872166,0.002316026521476173
-36.6498404220339,7.6438812488152905,0.0038485243896495503
-39.65016771332763,6.394963779372724,0.007386172987982046
-32.86809418945858,1.130750110740224,0.00413059991131991
-36.962970220141955,1.1666750879234755,0.0034414547457719937
-30.483607019181026,0.7527213292449186,0.007091740666910817
-36.15412665213954,8.481799547519024,0.002657094667129374
-31.899365684537408,3.815778422395548,0.0033103421636707176
-32.77680575251286,2.5417184503543666,0.004451680981402651
-39.42663102815161,7.748978219377708,0.003058222697611853
-31.530676793719127,7.379556078828085,0.0006124381873135132
-39.74218949720461,5.106554763784476,0.002875740909010541
-36.372202408001286,3.2681686016593625,0.0031118110655030742
-38.411531494982896,8.903754554777992,0.00916481120080957
-37.70948795720292,3.1995212908008153,0.0024416425462578
-32.74937362744849,5.719114294468963,0.009414601954780772
-34.41327711507664,0.09282749667151591,0.004991393113428384
-35.87115078383712,3.8102481825051315,0.0011269593096113995
-30.120292120418075,1.679671533627528,0.0034717574530945517
-37.44905932212645,8.088804311234014,0.0019023423553629294
-39.147000709833975,3.494729331664941,0.00804390806884159
-30.59356793681165,4.7242931379074316,0.0009078587720171161
-33.89479660011328,4.720478472085562,0.005214517922253081
-36.71868090511961,7.527291122941611,0.009022957767527552
-39.77217042242634,2.670807032809044,0.0047480527349254885
-34.410970150266365,6.783536365529292,0.0007134979451226798
-33.77325855578499,2.976062998191933,0.009234788307910058
-32.05919681964096,8.474156335649765,0.007088028334577095
-33.97517676348541,3.123900989395242,0.005582440739004913
-33.1043251179282,2.12446863358981,0.004654402459323108
-30.004159033796594,0.1976028181683087,0.00672125640067552
-34.18055797580804,7.321987941035157,0.008250807494912764
-30.842473720740056,7.786331335295435,0.007126453322881479
-37.342830664982635,4.854965733797694,0.001745424033747599
-32.1302214654623,4.742770106094044,0.004258612816203446
-36.670311588554696,4.583503567558408,0.00602950724663055
-33.68292960502197,9.879383731460278,0.0010126681816993188
-30.833601154873016,4.576358509362876,0.0023341302101142383
-39.946044000425886,8.67254487465031,0.001254057740883713
-35.590812998746316,3.4006616734663977,0.0071272623808494185
-39.636356704638146,0.2723455876746328,0.008388072805909233
-33.87971095030013,1.7060713119878357,0.005654822057658668
-36.92586641277477,0.6591778000323567,0.007098421266002253
-34.18853264056908,1.3346256539574208,0.008540258767624735
-33.536489300587064,0.6229306493282993,0.00511902320236265
-36.614071094790525,9.612028140284254,0.0037073275698520313
-37.0992947196504,4.634405539961524,0.002756248484995605
-33.94514476262141,3.122565053421713,0.009370016962530576
-37.502685289161654,4.432451333734412,0.003036511519847335
-30.230507438045258,5.006262571739325,0.0019152374754847657
-38.05559585312634,9.102894450607472,0.004310804482037118
-39.69804126158158,8.943249445436813,0.009386212736357053
-36.866627435924684,7.072238396729724,0.0038691161203907557
-37.93908605416294,4.281614726932777,0.0015905837567240112
-32.85922116952199,3.5313968806220974,0.00025884555407349244
-33.244462703128896,0.5257436140043603,0.00013697002771039248
-33.23488371625262,1.0194349924645585,0.0008057984829599596
-30.432809384750733,5.0083748037812645,0.006018887725906985
-37.96552041621321,7.544602772961271,0.003722104404103952
-34.286180400822694,0.9987881710119917,0.00973587647781393
-32.27219751380362,8.325344634609658,4.594615770732502e-05
-36.75820312706579,3.0906948607292795,0.006349366252506404
-30.30615928907616,4.909953843709115,0.0019426241901402408
-33.029466827352216,1.5092144521680317,0.001025744199086538
-39.901698102965625,8.004016866135956,0.005589640663435484
-36.41956168019127,0.38145284506201804,0.002239599884954583
-33.60370710576263,8.290488201749604,0.0030699505420048756
-39.3354891694665,2.863698185296306,0.0015779055872915638
-37.44406291304431,2.2494641881577717,0.0008216988371161483
-38.07582345203388,9.233805336388082,0.00405035350322442
-35.359663406291936,8.511844268072567,0.009545056154749357
-35.60983461072809,9.971249896764123,0.00440641133643606
-37.93261782015498,5.170126256564914,0.004289659138038169
-38.87415687999311,4.496669903843302,0.002947220641580147
-32.18550433487672,4.635859574276198,0.0058982795593782635
-30.464222980833746,6.0710426772817625,0.009714929750555368
-36.46963493536243,4.574698715584678,0.0020229193349028053
-39.896061295499294,1.875203516737377,0.0044293605966859275
-32.0554008761603,7.17146659732911,0.004117299289792073
-38.18111543816218,0.2076081898997062,0.0031496319761585003
-30.841575890913102,6.47071670724986,0.003817759229473933
-35.22500731017434,4.993140666659896,0.007378523657840397
-36.684284442883,4.86113495936117,0.002223156530481133
-33.30308396843624,4.022359648626807,0.00010791392506864783
-36.4710624075339,7.701741240677684,0.008425881606283627
-36.19881974530414,7.539774684833928,0.004267830660558198
-37.534485821356895,4.507793250603985,0.0045539407253815615
-30.909575721020843,9.349224939888158,0.001852967711230803
-34.104173634546605,5.394186595944349,0.00427619617742422
-33.76986120662644,6.452622148972616,0.008033029350368816
-39.35993200518696,0.042292710945432965,0.001983277814660763
-32.34092166969876,3.7815330231583735,0.0038680831149608885
-36.967769388422674,4.419976706979228,0.006451182567305845
-32.07916114452194,2.181546051128472,0.0088425869441495
-33.03462772208061,9.868193832172121,0.004382592610570724
-35.481111563022964,3.6941791508514967,0.0002569012572278406
-30.947683659367538,1.1457823441613757,0.00953666463946334
-34.92456347455463,3.6171676917731546,0.004347368373498293
-34.979524382330816,1.8312200374689847,0.003167273114392991
-32.98753166722328,3.62099075255911,0.002607440320836045
-38.55684496457047,9.199546143864593,0.007972588180300985
-35.700809264171184,2.258643486313232,0.0020985056518758862
-34.86079392004687,8.224149997038907,0.006749558790891865
-33.5271020745613,7.81462171020741,0.0029566883017768833
-35.646511860398576,5.327937343228798,0.00842447428772165
-37.0087801880141,5.16875721105729,0.004777801074115221
-33.845727806049986,7.432576889470085,0.002916001533867343
-37.448436993416045,5.166334577184626,0.0032979193464270575
-31.826088077027535,5.169299979267762,0.008824140043533634
-34.69675182340543,8.496517755443636,0.003046045902921103
-34.800337631259104,4.604980904008107,0.005738382047680571
-38.53728015404988,6.066243862359166,0.005046517249634905
-30.022752451218864,4.509729230915188,0.00404609223814008
-39.72006929227005,3.2193417179615533,0.005757592737504713
-30.363222401557135,7.451347347131532,0.004181710013378437
-32.03185946801437,3.9546248819131358,0.008804336762911738
-35.42257368811108,6.145924784455414,0.00827194976147939
-33.04967622612704,7.422154268820505,0.0015447101608895353
-36.15059607195346,2.252808437903693,0.007510892924004156
-39.348306293281745,4.834366079825586,0.0012544748652789529
-36.75874624236577,5.401780170685803,0.002661418202786512
-35.43674294027846,3.698483291427914,0.009557275251334015
-33.73552817168698,8.73117915186906,0.0022043021579125966
-37.66786290076191,9.331461425142708,0.003972967485542513
-33.37524754044467,5.251602486534516,0.0005151209517033007
-39.11554467887801,9.94635631233341,0.005751880699044262
-36.55846223092378,7.769660346085214,0.008177225182352041
-34.30390762084068,3.9378442526800628,0.005124270059983163
-32.348377714242815,1.0364631364133414,0.009814994439085194
-33.489476182333036,6.2755310221302105,4.637290069286704e-05
-38.63392680478313,2.9474383154969264,0.004671665830129555
-38.19471477279928,5.006743840259037,0.009291038218078187
-31.57248248164352,6.297512739021716,0.0028152330728930665
-31.4650641289507,2.2804472630660966,0.005905419885529482
-39.668794803420575,8.565654143076962,6.857113360128953e-05
-37.02820547290853,6.836707408177073,0.006802881721425908
-37.6786368607472,5.579130245315883,0.007551370805137443
-37.78020539935821,5.504063000557146,0.006752985354157883
-35.3228887552116,8.255233506710045,0.00957341726408887
-36.76262855676412,9.539850447157137,0.009157950097728835
-32.9567060039315,0.6764580191133363,0.008524422718725097
-32.25237097098912,3.8544503177097167,0.007545139504584815
-31.421637514212208,1.0464843355129871,4.859761628087434e-05
-39.20161427042166,8.165439608219208,0.000598490030042681
-38.11982025942138,3.2127458976779364,0.006123380183863793
-37.72998912374237,1.4448324236710042,0.009100829103328581
-31.929996117658767,3.8781757283317275,0.001251578443341137
-37.52709119117709,4.9179433502204075,0.003088694271556499
-35.43542535959729,7.088976277570121,0.008325475042329663
-33.576559211192105,4.03791272380314,0.0023384493490121983
-35.991072994015006,7.197231934716051,0.004774018410018245
-37.15420825292629,8.426038746565911,0.00212261764208625
-37.77728123214521,6.484652216307964,0.004368625401929584
-34.73219165116427,4.6660752171356465,0.004275879470272931
-33.52525436831526,8.154524521200694,0.0010158957914241662
-34.2380633791156,3.3148002883676,0.009060938490946514
-30.952036150060273,0.9021786354340711,0.00989795469681115
-35.64094105453654,6.143311960234705,0.0011342532500059567
-36.673386239745824,9.884719271428237,0.00017247049040722384
-37.271791271392146,3.1631503011941553,0.003255679164490103
-34.27366229545879,4.797424933976191,0.0016439334823580554
-34.94343069138511,8.713749155987433,0.0015932421637899264
-34.464733774926344,0.6994474775306037,0.0071465815626997695
-34.8374634058126,7.711530990395678,0.00035251255617143375
-31.658921371270907,1.4819297013172084,0.000906027738546138
-36.09292911383781,8.375511886534722,0.009982031698487192
-39.04185890635896,2.9809708733068705,0.0043723450252943375
-34.29659272749519,3.7086560376093356,0.002272259994904475
-30.261570611741178,7.431461478701614,0.00493262135203896
-34.93613431603017,1.789277729303177,0.004921617001498377
-35.68417634883884,0.7382144495718523,0.00027215175387011015
-35.189630385327945,2.2435603642763935,0.009814131161462982
-36.086760469246244,1.0500080609633955,0.00043332972096770783
-30.131172743317357,4.822539554282381,0.002111269097668206
-31.33709058872819,8.881579616603513,0.0033502668602507038
-32.13465478119988,9.28021421777104,0.004324475338837238
-30.458135847401024,7.50499766784186,0.00936423276992593
-31.672352958806933,9.513268185597484,0.004567360199706153
-37.232981598132206,3.036472109323465,0.009519514664962229
-38.91964286856743,8.242978474765412,0.003377224355987303
-36.741720316131506,9.077870948428405,0.005191995702689556
-32.03887294541685,2.063744367282143,0.006799295270417977
-33.070457440954,9.384003281034088,0.0044681943899882995
-38.47789243162639,3.7554304549965223,0.005273358503159678
-38.64471354763644,4.008779095254495,0.008188593482080843
-39.16528341035663,8.855160746522312,0.007849492296108363
-32.57415844247882,5.465703335806551,0.004947215637520501
-30.848316689093352,1.5553000954829876,0.0011555658545380676
-34.93644101611585,5.2467464820110425,0.004284640813378261
-36.740105384864464,6.549827994676876,0.0072952940355349525
-35.459011958886585,5.447492221077438,0.0021499015315840277
-36.904926247622896,7.574439072545227,0.00048792466559516523
-39.889215737927536,4.395336723639809,0.004264054997355234
