-7.602994478149544,3.473791479208735,0.026315115140019912
-8.9471601540136,9.629452087913029,0.04761803415977748
-6.60758045989176,1.5279227434701148,0.0308117313772867
-8.562249803662912,7.494834675086855,0.009505884961847339
-6.459712314382662,2.586087040814742,0.0021103789551147278
-9.923420093285404,8.627660924357073,0.014127389978490846
-8.711923500552674,0.11343943962253356,0.002819469450542972
-5.874625921508395,4.6307462379301745,0.04504797905136369
-5.060892583377279,8.64963625138364,0.011895790140681617
-9.867292758426675,2.7813345835483485,0.038789140125192495
-6.204236099740667,6.386047268498169,0.011341241399912627
-5.824682865892951,1.5670639751894677,0.03534834367015347
-9.808454305782977,4.793715163498003,0.028975478963758957
-6.685562387609677,5.199698919485756,0.0287457685399293
-9.933424376497404,5.998409612089375,0.004077084437938905
-7.094238556228428,8.449299729238565,0.007512775537114414
-9.578522031283878,6.7399811951088,0.04431099114455922
-9.094432280393661,7.047368943846801,0.01147255697441938
-6.899016078028005,1.8474228210323862,0.045772086112982835
-5.516856192188268,7.203261593133031,0.01838917714158659
-8.146720520856718,5.465927555775963,0.031645863389652855
-8.418685140260834,5.048482662906059,0.00990240984634233
-7.48081668795556,2.9168479068918263,0.005977371084991518
-8.412297637090607,1.378271611208458,0.04879851310295692
-8.020382818855776,0.901864156755593,0.03780751217637445
-9.220352410503683,0.6179325939817304,0.024537094819350583
-7.7618289365826065,7.890384012197185,0.015266853770439176
-8.602662161067846,4.588286382165779,0.005919143184988602
-6.619585396505818,8.93820370500211,0.007795404314241844
-7.160542597960823,3.7558040380002335,0.027621689333140145
-9.380311707690714,5.277254545341711,0.024049299064841753
-8.89515108773633,7.599929369873672,0.03612473883430615
-5.318858105517411,2.7500243167646685,0.034790194285864426
-6.841624024291685,3.3577806202008253,0.035083437602727106
-8.023171174260124,5.49850052867081,0.04573401981624419
-7.364112037322229,9.652006335409972,0.016105795832653785
-7.267766965141936,9.87623696353301,0.01681046995684073
-7.950038509472654,1.3222004632421647,0.032413353627588674
-7.9116107445336645,3.2011066236173455,0.039503529386218234
-5.744896625374869,9.443060689206414,0.007911053476863166
-6.636529662213397,3.487032021649219,0.03391152662630874
-6.61903995760033,1.2064832294314243,0.000883825085086748
-5.012136305361018,6.523727403444033,0.04521626704150629
-6.072931815966124,5.412772252901207,0.03261246308078924
-8.878084554564317,8.808020705083333,0.02839917328117178
-9.869678273772386,5.587097814040498,0.01683922792318172
-7.990629866698509,8.788479469298906,0.008160347146979113
-9.790774007123861,1.3768379280580645,0.03187997947179068
-7.223392504586073,0.8876944495410499,0.007275442559917428
-7.908618789264874,7.418224624162221,0.012513364964181206
-5.18493317358767,1.528224631310885,0.015888215374269883
-8.306443993833389,8.224858072218279,0.030352220308662987
-9.880236949111902,9.42358543635581,0.001364130060363683
-5.28021973629184,0.7053643175901858,0.01838596446001683
-6.3821998525439945,4.94381578153264,0.04207759935378222
-9.311421193931661,6.368653914485638,0.04382988732598117
-7.419458295754042,7.157081890759789,0.003455924891572121
-8.083135679441703,9.106137925552584,0.04575022451943914
-8.521248881146644,3.4007517970730152,0.033133031525811575
-5.6380705300123175,9.46319040833436,0.023184804193631198
-6.846860168716198,7.477372991287259,0.013163135744167049
-7.203624390910113,6.366149470678567,0.028808741765864454
-6.443485166187823,3.5960176642120856,0.0298211560103044
-8.251700734033802,5.015285568970009,0.03758610806040566
-9.977404715577435,3.210922243391904,0.019154088890030282
-8.693262333446174,9.02538462012624,0.03685844773602282
-7.1942724121254376,3.65016775667839,0.0159695139513029
-5.885251575650174,9.690584247217918,0.035767858304692764
-6.863078806907165,6.211297041962215,0.014124020357101114
-6.436986641642354,1.763411063230098,0.006681419071430228
-6.920087961932748,7.589697119350457,0.03907509472276503
-7.2075754013893505,0.9961133134426303,0.023790914347508765
-8.70219749943928,5.909970314548172,0.02731484256802152
-8.821236465256122,0.9019881989112932,0.017651951600031236
-7.832444431051609,1.3416889674014953,0.030530831201649778
-6.104678347470953,5.208917489205181,0.025732688240370023
-9.465926636588687,7.957159691040462,0.02375067466854505
-7.58195927770581,3.3837175630480463,0.00810336865203135
-5.673788114887889,1.4189756014273147,0.02653872937534278
-9.28390953887809,3.953605385341011,0.03706910808405013
-7.585170237712615,8.765293007297657,0.011964611435865958
-7.290617422089067,2.2093618161655257,0.023182636161468553
-9.70475084510907,1.3408613649635737,0.025935562286223457
-7.091893297378546,7.708986938591037,0.025790941393567135
-6.14699904919552,5.7006272708622046,0.005461542481679727
-8.799204291959864,0.7986575901970128,0.00023975049003286953
-8.83376610565764,8.055897341083746,0.015090836118358115
-9.489936743386167,4.364444325556763,0.031192365243064037
-7.17292132381507,8.66878520342782,0.025544522251573606
-5.979955425835185,8.3548690377581,0.04727793612935574
-5.15688168040795,2.877999021905062,0.014428737692166876
-8.65710196291765,2.4303004782595963,0.01156836942172313
-8.637547780230536,3.8799209355701025,0.042968561362475816
-9.234773998176347,0.3620809357575583,0.021953539094269454
-5.4102908508626335,5.960570448501189,0.02699410603517373
-8.059778005554291,1.922251643572509,0.033567690175702464
-5.177727223056921,0.14738694410479591,0.027549646912585952
-9.861088921895664,0.011267674596849853,0.04735208382079488
-6.30800758738109,6.463531586782763,0.0093440590406963
-7.67476666657277,1.53397372569402,0.019674800809912876
-5.102069248614994,8.997984577362017,0.004743440097914687
-6.537487058568258,3.664225889419208,0.029153470706703124
-6.6525571575001825,4.660984034861572,0.043948479585950224
-5.25183448457694,1.3676143447348144,0.044029293059118485
-7.309079967819452,5.838127399997887,0.004716580481690125
-7.676550810920298,5.093119141358265,0.03538712888713562
-9.075843177347272,1.7816874684837636,0.03857875136381568
-8.404841128525446,8.293792553865728,0.01751904109940517
-5.406988506245538,7.852634917349882,0.009388849979999482
-9.708073852150468,1.134678803259721,0.04173826829043228
-6.322494243857783,7.709479533090807,0.007843358237866999
-8.064834690349674,9.953724822118556,0.02639923243410863
-9.8559156580524,2.444344597051632,0.010072631366532093
-8.323999286668549,3.5468865446118256,0.04842800120872442
-8.932172648837486,0.7335587870017024,0.005430334621973393
-8.03719419034907,7.650174975155758,0.026990340872907633
-7.944347397895626,9.12787621196968,0.03465907193076954
-5.734618917419523,3.853240888584696,0.004593500630437658
-9.454976802625279,4.316479605548494,0.024310522175360113
-6.2202293814003955,8.024939348215804,0.029773428711497314
-6.3258945601118075,6.268635131276891,0.03662498775501296
-8.980390306465265,5.116535253527289,0.00945637404072789
-7.092868280773685,6.011816490588304,0.03592331447702666
-5.319110836484891,6.377104344640699,0.018146707164947352
-9.1594887295259,1.4445978882404553,0.04423202895906078
-5.876298223391695,7.223672965373307,0.013978823001910041
-8.475759222247484,4.1294830903569215,0.0212778389662383
-6.589474500617565,8.430693198607564,0.01161201453783668
-9.6322092972322,8.681699031249288,0.04433379723358133
-8.59100464745645,6.358973055688441,0.047019917934401176
-5.433078194270107,2.1792054022475527,0.04002832489980339
-7.403407646141924,6.3378363913235365,0.026476624827376446
-8.772030802827704,3.8988782293512,0.04296763290991276
-9.54028483298704,0.20947581778354318,0.011639273818667828
-9.567564103351966,2.3620315829605376,0.02446851162172524
-6.393483321728551,1.0707119628600814,0.043408502069145344
-5.224507608946254,4.861576006659908,0.014033641536288633
-6.680852997752604,2.1065038323258465,0.043936508788005195
-6.446483456786192,2.3768463744676325,0.005222289138265008
-8.021131605239383,9.502677600469429,0.002318559187985869
-5.813784984616052,6.364859500674767,0.012609265776820412
-7.490716350286139,0.0021823512429541836,0.030690856955296837
-6.399363466376808,8.267006581324692,0.048528902002434565
-6.692798422203232,3.75213110577145,0.02332811544536736
-7.750312155727114,6.422995343873385,0.009458755456566282
-9.283358475236065,9.414820384819198,0.04877684293379488
-5.036073400668509,6.111711772659826,0.019016753877742376
-9.512746117508364,7.32107202272392,0.0133047680296151
-6.090042842998347,1.670292518337374,0.03253832776686217
-6.77592906531634,1.9891117676001702,0.013432869484785753
-8.394659211784788,8.6677809343629,0.012967848803214534
-8.641258330582367,5.036780575138362,0.004088786015389478
-6.270727676057527,9.370553705492242,0.012963952081554648
-5.523021579324005,7.752752621221145,0.03057933404775173
-9.771956242122332,1.0796886713079101,0.03905449641448296
-5.539983276911677,1.7727055639499123,0.04491579065799573
-9.086396147306091,9.711698850173951,0.008628010781236988
-7.828723686220914,6.036129495713527,0.04315675635226477
-8.081059225372902,8.47550284197479,0.04361119760076912
-5.738181183763967,8.776814405166995,0.021021095914024242
-9.035472595721885,1.0984678175510576,0.02940593284485742
-6.056800122602305,2.646834680732658,0.011370442680878556
-6.664475755406155,9.578375939918125,0.037849119403148695
-7.469340694653335,4.217879514940125,0.03933697308788337
-8.150552842454736,4.387836314530704,0.033585906160117925
-6.644050778196397,7.757810943061831,0.048055374667191515
-6.520326833564546,5.036460563962976,0.04167477605028823
-7.1871030642557,0.0015674903851148336,0.032638726774859336
-9.49092101356753,4.538715923851731,0.004147568834583221
-5.298338657024383,5.745479562901283,0.04944940611565171
-8.174450971834844,4.813852059040733,0.03754618506726002
-6.046773635886901,3.113435623804391,0.01837956961160166
-8.500140869709417,1.0592945179669566,0.04759635966254132
-7.989470640300816,5.512333772389901,0.01863410078057025
-7.040190393157239,5.387854227797697,0.007126750077433491
-6.936844842937252,2.700963322944209,0.00987731656464313
-7.015227974739753,0.10955252421682826,9.252433129182115e-05
-8.477062795495339,8.941690880428357,0.04456061989537813
-8.991788923802385,1.7362645634623808,0.02167035387653002
-7.330980913126362,1.0316483961529999,0.02429369321364082
-5.4302253744951,9.072635869608117,0.04697707021077904
-8.213693230553956,9.57607110215192,0.042070874771035036
-7.5366530335086015,2.2288800777452886,0.04091206293022365
-5.381154356882629,2.4894346334395356,0.04187153841423773
-8.332592224232366,2.2247472593567794,0.005200633943836636
-8.931663556709278,6.874118415489439,0.008824257529230507
-8.046065824244257,6.880230408298479,0.006441256677808916
-5.1000612739927025,2.961148703846007,0.012853041294644508
-7.375802259087584,6.719274617483762,0.024816080973527124
-9.931795312018085,2.174386675478366,0.008196604699388982
-7.350217882080333,0.7285060926366749,0.00619724717234576
-6.382999819294081,6.286768121747915,0.02661817481564387
-9.257791865199085,2.872576689343499,0.04702431524774243
-5.1358289585602614,8.250939355691461,0.045831502401128384
-9.851180590352028,4.616740080582559,0.03302350126702427
-8.102443834074995,5.218442598211213,0.040888290855292886
-5.360493591197824,8.469902235772157,0.04851721194619956
-6.525998859681532,7.203250084329574,0.013558118899603617
-8.40423445558997,6.010068887245573,0.011897413796556
-6.581710334465787,4.889010211022501,0.02911872367215664
-8.372339659188132,2.016642149547263,0.03229900029239696
-7.625471942905886,2.658620118746018,0.00812386561501442
-8.71052115745797,9.040891952695363,0.012020336206536543
-8.185570636621504,8.559532621706175,0.026526280875775816
-5.713039001662659,4.065375750352066,0.03667579954818248
-8.9474289357129,3.6648414334455035,0.04451214604977516
-9.571090429752896,8.672592957522742,0.01344519215170733
-9.52442578764419,5.879501959156243,0.014888257060252486
-5.211185249453499,1.6500512548591373,0.03591533584271133
-5.154358909640821,7.050484109685869,0.01965884360848077
-6.327155802422997,3.3873216099538386,0.029591420242850587
-5.388757868136547,0.6037058620577962,0.027069457776307926
-8.073361648517938,3.431087853362429,0.018819699101034367
-7.4381441455586295,1.9772405420353933,0.041294177936468855
-5.221729025885934,2.9096352113772115,0.040821558810229544
-7.82861441790209,4.55977682813139,0.031562847734574816
-7.808829912750937,5.455796993517143,0.04104579144811671
-9.052222886316839,4.4171975138073885,0.029219829119663945
-6.916267877863551,5.5439555644449445,0.042833832220456926
-7.253331295110075,1.3441629215284967,0.026165138601497807
-8.446328753503604,9.406604198806836,0.0035817150921328036
-8.174382980277656,0.8056736490600824,0.020696080509212456
-8.041281410300954,7.847008311351526,0.0408569799481067
-7.671620843796907,1.6969314893622556,0.015384531730356489
-7.610761499158533,3.4910739975598872,0.011941378755853611
-7.543583698661263,6.297769626657849,0.027318405289780842
-6.434331676971414,0.13957752965317427,0.03987560667093564
-6.241657415033028,4.034935325224414,0.0004389589756149115
-8.711962420421795,4.142557460162308,0.040801985721532
-8.952663283716173,2.4519830149294863,0.003764440908600303
-7.659820865484889,9.66140651165718,0.019392464447348476
-6.452629044505588,8.461045786318632,0.041248582065082515
-5.344611897543649,5.32791341871016,0.004333963389331824
-6.189648300574747,2.098625225022234,0.022435409258252118
-9.552464118147128,0.16441711280591687,0.004091897805916511
-7.447012845537683,6.828416105150154,0.02651861933363662
-8.743424185447957,3.256210875508688,0.015344886903264278
-9.515449933121765,0.3545954469423751,0.012534866885486674
-6.711290510973713,6.448122601349093,0.0027451232087441326
-8.954855402356667,9.208000395769522,0.03434897319405734
-6.654256177271671,1.8473474745860508,0.0029667340987043936
-5.748300415197548,4.083004626479834,0.009744007185001869
-5.856928510094035,6.890325949361071,0.03900686769764314
-6.2169859193721,8.129642335725366,0.017852811422678895
-7.271653283988163,1.7886569088965998,0.01598900773643989
-5.717999034750598,2.592813841422709,0.0416543730701775
-8.675577702564375,4.795259826419601,0.029103892085341244
-6.623089843068699,7.891059808953419,0.001590329636301019
-5.039998229985084,9.237964878824073,0.039550842227697114
-7.762574474979633,2.5367503458460163,0.03988215693368256
-5.363852687150573,9.74588619158543,0.004632976580549919
-7.275647711277493,6.048769956424472,0.009425255752228318
-6.736009232055245,6.163467163442204,0.005968680969465407
-7.997009363093909,3.1179723792846357,0.03333042359362982
-9.816619015925713,0.36638734889599345,0.0012975735072051576
-9.688374041437761,0.6238707791024023,0.0008676837460380116
-8.306624452030714,1.9366832235664744,0.009942484008969577
-5.392350651618198,2.245657665895026,0.04664848747813946
-6.142379057830925,4.572902999554024,0.042807764884946586
-7.113976340318871,0.019632570702835528,0.04643246093245979
-9.686257946483636,2.1565878766305726,0.013857884375013969
-9.393279031520343,8.327786645723632,0.010259578971123118
-6.283551311995329,3.5167064163019655,0.04622707578030388
-6.796076056787902,2.3745506168804473,0.012154783868227421
-6.732652677997697,5.198578027866919,0.007665433818914203
-8.716897822046239,4.366689547896857,0.022817136070524338
-9.533112241142348,2.8827740239461654,0.047948969967904015
-5.529173785026358,3.947560523513818,0.011269197504076539
-7.9871491766287654,4.538537785020656,0.03731777555249605
-6.41017688925111,1.8372986940907188,0.03575912311361408
-7.260588273505006,6.010715096705292,0.026037964143820137
-6.3377560635144885,8.062462363740657,0.03370899074752838
-7.508526191007821,3.645125831508934,0.045820041373430244
-6.888364354492047,9.957320029168699,0.04197950362780883
-6.5544149104639144,5.96393318743822,0.014843393176783098
-9.18556019262634,9.679801055980134,0.022160717248703526
-8.170143014640544,1.2644943484465554,0.031813188607277595
-7.64631935741853,6.79797817108737,0.010292300919469012
-6.534038333935891,5.105252138366263,0.03693692085641719
-9.898991483594498,7.560976963303766,0.018518051187629555
-6.95382739485028,5.809540263145761,0.008535881960263109
-9.822472447969817,2.469273824689754,0.020829584452761653
-5.369716033163082,5.658803296957267,0.026790243392531513
-9.870597807203545,3.257537395552801,0.04742530746539311
-9.577558499393913,5.276793998991015,0.00440304057506904
-6.263759339888793,6.8275160956284395,0.02901303942007369
-9.3850741445082,7.279090856965327,0.002725612256211252
-7.165541472406945,3.5517677124026514,0.018948645981197516
-7.952807969589148,4.7457906367772695,0.03141014987419039
-5.429822617367968,4.63165583576831,0.0041170032972815684
-6.160820481391232,0.8305798690714761,0.03774531298870749
-8.488573010849016,2.763651927061941,0.03324587547708178
-8.758821931352744,8.185715396304298,0.020332344066726838
-8.101441086950782,4.957645597203087,0.032273972600802135
-5.794330063760029,6.322254803160792,0.04886698384775737
-8.531495147015393,9.948685708881031,0.027317270607155913
-9.34514353671851,2.203880562448879,0.03350322706309085
-7.692660644422244,9.47635645826821,0.02519968144904976
-8.160800785938624,3.22222831769671,0.041438663168072556
-8.077027581419369,7.145431212705193,0.017186676081160358
-5.179126263732544,9.986050448409232,0.026591372495590994
-6.546442854112538,7.423274107213986,0.0019660219286164573
-9.073735081987204,0.30708372155707875,0.04616402742978665
-7.046943632331396,7.1209773014019895,0.046194691009748774
-5.954004018818429,4.154725127120223,0.009154254214545304
-7.432745633046209,3.540534673396661,0.0011603610278662746
-8.285285139940031,4.074000311564305,0.02411028686714661
-5.893722320353821,3.3414044628603445,0.0156309754110783
-5.880240617993077,3.8662101955488906,0.048834628514710626
-7.053730256343501,7.156358083030821,0.04517634685160475
-6.412683281007292,3.9551663503479184,0.012934578243365852
-8.763376241182453,3.9060305226825554,0.0366647556611275
-6.731404592081172,9.3499336989708,0.012356618939061332
-9.783861014282412,3.406805937013342,0.005037737216677579
-6.469447746680419,7.797668239852234,0.0410843867317347
-7.77079323562271,7.125435839112066,0.0393080669592048
-8.364651608142964,5.4206383353313345,0.027925733108902496
-9.723709883459014,7.0956815287327215,0.044074886747020876
-7.923111638080705,9.290557861701018,0.029860299661742626
-6.071959240003719,8.861188494163242,0.0035331888339557196
-7.7977802958354525,6.122723834904907,0.022380763340626792
-7.729283434002557,8.240331305276133,0.016973192212432504
-7.531441239806157,4.572650068671379,0.019669870461949263
-7.161253116872294,9.23551712959515,0.042525268381804225
-8.995245658466681,0.026379623249007667,0.03992817670501851
-7.492425992892498,2.498563484627777,0.0008232549377174881
-8.098772732459679,8.286319337342656,0.0432188204821152
-8.368006265174186,3.8190709598676476,0.021836328209877437
-6.009146493367984,4.803712620867722,0.02662737478547555
-6.016412641102666,0.8936098188006802,0.006869647200900775
-7.7399641838017095,6.801930619967736,0.021903186971342744
-8.411550110128344,5.882067707430468,0.04841062605134491
-5.4826112297603515,2.399743533193064,0.01623567675214546
-7.301536918103306,2.6326639842311907,0.048951591001442175
-7.494704078495398,0.44286502395507465,0.002822606562319008
-8.282535116096437,8.639548179903974,0.015300445001151564
-7.8828123253454265,5.444245968538334,0.0029553649070770574
-9.202382337199495,9.152323280879669,0.014070526182707772
-7.523138407319676,0.41126320338255584,0.0316301442797871
-6.257432413430411,8.515394363290104,0.02886400811159223
-8.821492350900762,7.207562579051864,0.010890350849787074
-8.008979695803742,0.6348132839762255,0.049910983938223234
-8.702782044519978,9.065584070875959,0.041288349305153925
-9.662655521744698,8.942859193970929,0.044592110817711805
-9.600246740098797,9.93956807216934,0.02337109775756871
-6.828513579172089,7.134961554418102,0.018218407327142267
-8.731686531425254,6.109978385814289,0.0106823370314595
-9.84005325042528,6.344602121934004,0.03958572287202108
-7.860710380249966,1.5867295201223142,0.004745437243558082
-6.048614016876722,5.742461934957886,0.02928432306880992
-5.564288896888663,7.458007309605371,0.029647456553267882
-7.203771810596781,4.897197372731508,0.011620892969414065
-8.215972005934994,2.107992126688095,0.005889414169919949
-5.607452287882168,0.06404400228705476,0.036608448562384224
-6.947525708561894,6.381814860095733,0.008280116910353663
-6.128043923698804,6.159116915191217,0.018706270467487213
-8.944587346150573,1.7936511965620183,0.024060369792576832
-9.0335019401893,1.5628323881840078,0.040241327744246824
-9.28786198436688,4.877995641897469,0.01261282236134197
-5.971873902098693,5.86332202046271,0.029831981075032012
-6.075362544732023,9.89624553799473,0.010941139215492968
-9.282555474615195,7.627690071220476,0.014212127981271895
-7.470582809524933,2.1012437628073286,0.028140627577433047
-5.117578694906081,0.7348708319892816,0.0008887649714702961
-7.233027771872666,0.8496388222996487,0.042671667154182996
-9.268394419975692,6.995670823263359,0.018664453546287946
-8.824302924891681,7.667019827716556,0.030024120137603222
-9.778756888809895,1.6116364569593467,0.04503442184967977
-5.0279385681375635,2.1391580475734937,0.03553106797130091
-5.564457798196463,1.9062071720111418,0.043003443468855734
-7.401602556515444,2.0277286900135962,0.032377259179301725
-5.945360478020694,2.371559191183371,0.007387502697818488
-5.361619382500281,4.895418185092008,0.02746009849986783
-9.043013094031044,6.307857818109014,0.019251658166086812
-9.631378327822866,3.194065729471828,0.04143183530514438
-7.108188150561218,2.963394298217772,0.03884597023460469
-7.542677741122212,4.318605245845251,0.03879158316738798
-9.090826399483834,4.563847111611283,0.03181920908779385
-8.343634457221306,8.761709823660176,0.039156813522999816
-5.398284862889968,1.187972565777835,0.02285737011423379
-7.768061872862992,2.262932141748454,0.01128676257545097
-9.769857763076926,8.181239522335842,0.028030730007398447
-5.382797449469385,6.449003810818209,0.02479327084464575
-8.181365807841711,9.108762530183252,0.035121860455182355
-7.819372676299334,6.817177619806997,0.003066451130153114
-5.711126121443674,4.731852143469508,0.03489735335542457
-5.815729225863714,3.1509975432614823,0.024107586884825394
-5.7971093493419215,4.406967861298032,0.010002950135288109
-9.728995738789159,2.1390084576410695,0.020042693733815287
-7.481803864242238,9.661885226287412,0.01117783319696606
-7.062240127859446,3.430678298481036,0.044414087416721135
-9.941686589960801,8.197727764150294,0.04630363060511516
-7.050427163581661,7.958060759027157,0.026598376221707992
-6.470563093513686,3.096722489237088,0.0019439510957256325
-8.46350088839217,4.532034202928794,0.014379395827724295
-7.909652386075257,8.532565819064091,0.005796592488711144
-5.076929070883243,0.670027219720355,0.024715342109026674
-9.247711364551357,1.550805502106346,0.03917254528906312
-8.28765179658002,1.5692607021316929,0.0034569878471898854
-5.745105246519166,3.026833049297377,0.00564743634538295
-9.07809517047674,3.969761185518993,0.04307920305262153
-7.829925659625427,7.377688490475287,0.031351575242323536
-7.538182280846545,6.412953473171711,0.026682031180161065
-7.834488892877703,1.7748337215045595,0.016951181691156513
-6.5271030692268415,6.729090306701211,0.04674512583393971
-7.102606619759921,4.906165022851523,0.014228655911367606
-6.397909354573784,1.7103855010833402,0.025975209816790162
-6.410631233028075,6.409852697827408,0.014004188094289882
-9.744690615105009,2.906923342375518,0.004466500397211204
-8.913413309000184,5.850427323367469,0.007030420521367498
-7.636195504813902,1.1642698506613247,0.010269627212862937
-5.753589193502814,2.9341343434190295,0.03930167877982603
-7.0908837369532005,2.4880749571367,0.0013280731590684493
-9.88590524829683,5.748528389078053,0.00448523245309101
-6.39588559403745,0.7514245061862612,0.04307261452373996
-5.3942104968311435,4.271126739679973,0.041317242594481045
-6.239871958183908,2.3994885267888666,0.010006650658363253
-5.433930611185414,4.67998155522565,0.031739667209409066
-6.279744227671023,9.679208175946231,0.004734094715700976
-9.156436770220392,9.314425251344211,0.02860116767541784
-6.367966704227494,4.176744809014456,0.01090368062395279
-5.345727205305674,6.01693140888837,0.046536231020799006
-8.23877072325299,9.623504428659572,0.03279805027222867
-9.563242657439094,9.601407144234944,0.01054420294619935
-9.56956717877625,9.441742464986028,0.026741258276212578
-9.973880528386767,1.8869973359369896,0.03732581273443178
-8.878516031127482,3.051626893488444,0.04067560113120843
-6.8964788895382245,4.228503654117573,0.026695825991491624
-8.840408502087637,9.46103577956184,0.00810958434182718
-7.608473166329874,0.5654799488424456,0.006538574332436881
-5.772756855308766,0.1883593058382227,0.04360984364695749
-9.441200273975333,7.772896848785697,0.037488019549123744
-7.277128732914097,4.520466523239193,0.010146028316188771
-8.680997717003576,5.896936898603919,0.023810936441209976
-8.907316011919608,3.5941062952963554,0.02265224411836384
-5.717884306488629,3.035079636697724,0.021685950280277207
-6.955115185126614,4.1065937954541,0.026210085723404098
-8.234119940889464,2.5220232561627665,0.015469421227897896
-5.951085956178373,6.383459550593454,0.011053942560972668
-8.275901156730429,5.625117797791651,0.02183094611265728
-5.859007634347835,3.6457235370168464,0.02556900343014142
-5.084133253566151,7.710893307929975,0.033963764149416195
-8.801741135969312,8.612999287788227,0.04998628315124364
-6.9240313396173825,4.016256465918367,0.0307384312648494
-6.1414426297510545,7.573469536205137,0.021158844428429347
-5.589991373570262,4.5008351830813895,0.01250311869485285
-9.275401596743656,5.354693271155418,0.023272185240524348
-7.5747362622268675,6.944770239073307,0.02973596690560373
-7.521085174292208,4.503031432476431,0.020600420794566893
-6.154140495424929,6.519094682331442,0.039964140717712676
-6.120754761134054,7.416123383729244,0.012546493621558397
-5.9222331798938175,8.744873035590071,0.037715058587216646
-8.942512072505826,1.188526076406361,0.02339906660611564
-6.731128122131439,5.5756143553526645,0.026432083034233653
-7.57045417496373,2.336996714127787,0.02319484351431086
-8.741339422567979,0.9041999789158328,0.036223072577353466
-9.958142227260389,4.657184601180297,0.013297067190694789
-9.329295133446879,6.041635104854134,0.0248792437184943
-8.00453196354379,4.6594844200195595,0.04110859153635915
-7.003213242393574,3.278309050087771,0.03846959813141549
-8.389885290817459,2.182818682575763,0.03029341437033435
-6.1500807147465775,8.121417429694374,0.03700964993579014
-9.446623063075346,6.956563298869546,0.00042405987015663453
-8.41875963549898,5.745642402232043,0.015135000929757626
-9.508769583081602,6.840264426625242,0.029948411391057046
-9.129248295702372,5.605569138973443,0.049790267908228096
-9.128419362199356,3.364509939028607,0.01691980308394772
-6.003296213578555,9.126840782504612,0.011914808092863145
-6.187252613690677,5.622087703034552,0.00014903796095313562
-7.526334528183748,0.6959515374026637,0.03768364007695904
-7.188391147432036,3.1617985176182883,0.002279402306382361
-6.2222572806528795,0.8168149008920633,0.02590043100082634
-8.326449975974594,2.510664652161596,0.005914113114988889
-6.380038955189677,4.352256885064944,0.048562767136075824
-9.617506716653754,5.4373010781878595,0.0038412760013812886
-9.55184860752077,1.2437492737241862,0.01825431312853112
-9.048550651292178,5.85400423558181,0.03739221406230086
-8.175761651858227,2.5767183573447383,0.04099585777516753
-5.720973761019465,8.75010396463386,0.0190533350467411
-5.73220152915917,6.186556983739509,0.04323222825831131
-9.580569997096905,6.492317256183613,0.04632847597658455
-8.3234769851649,2.5742773611618786,0.022381700476798633
-5.604225038858654,9.184656843213343,0.021239724013898627
-5.499906116962257,4.038899002848291,0.04952157100963285
-8.492299946110254,4.891716095047335,0.009375908198095152
-7.0953672188327115,8.862497710157365,0.039291047747091135
-7.16637097058233,3.5634821712867937,0.04544812068982776
-6.874395248614512,2.6430112985272936,0.040574339392656616
-9.20032418608601,6.259506728775958,0.01195181805913037
-7.250234938914041,4.139065827080705,0.016886917496769845
-5.327139495719336,4.170898614156741,0.01026840747095853
-7.487216965232026,9.384360917313343,0.03969818077741991
-9.251692503529396,2.906873833694068,0.032438254037424875
-5.771198684095215,3.7284994200151966,0.049441451480215226
-8.687606035588704,7.643933784540268,0.01891828110549165
-9.837142984703675,0.2511094757023269,0.004233162131282292
-8.440345379170603,9.816953996239045,0.010023435652500606
-9.417114474566473,4.079477510931192,0.04454113371635096
-5.161283655958227,2.662591110115138,0.033982091494682114
-5.45899197721743,7.6432986279991315,0.015058501852369273
-7.557888289090178,3.9960839581942964,0.04643591999095867
-8.206905961388188,2.453060096716888,0.0035934528994267636
-7.00403487349236,5.092758610958715,0.02259505690614921
-8.1829170701924,4.594001336090603,0.00340007360786625
-7.179431030634721,9.029471630333639,2.7567855848403824e-05
-7.783947176111896,0.5425364679653077,0.04760976071516106
-7.326650908641829,8.67363020551008,0.004277259005219936
-6.048451974924807,4.934744653033839,0.006829581379902916
-9.94582147626965,1.0813731427679607,0.04637979477731999
-8.966858484808238,8.167063608384487,0.024471755257434776
-5.045957901418959,1.5492448152449223,0.03273593591923223
-7.4075298424221465,0.46236411577041503,0.008191127654042568
-9.795063518912194,8.781611450250088,0.0013705572863093153
-9.893505815944188,0.2511454801089452,0.0034257257819444997
-8.431395721144941,5.89813855567396,0.043548870342151456
-5.108502568831169,3.6787265698354,0.01118936899741515
-6.109023734578285,1.2131566081076584,0.04909692678456798
-9.57118930334208,7.590259713884425,0.04832530085431076
-7.132525497174797,6.908334812105219,0.02760049215496349
-5.625287422441534,9.931478808988942,0.04589583766654059
-9.895830020790395,5.258358208179422,0.045616620746991986
-7.904616920146882,8.790043461486588,0.03685080216910822
-5.061894544508078,2.1731286175024547,0.019698256202729275
-5.953606536164349,2.5700551197050814,0.00584749826436119
-5.822710367014608,6.639893937031481,0.04208301160618288
-8.52930093436377,9.112227388372371,0.0005060557765441676
-9.47650548391329,0.3107003018385779,0.029966557061603585
-9.060328930718025,8.732742294396033,0.03247683089369731
-6.548498502142302,7.316606561061758,0.0068059373588555405
-5.60995435505386,5.489962033916903,0.023883686082270955
-8.428025296234816,6.97627815478395,0.0371051794787879
-9.11331427519318,9.271808248139953,0.0019269830150442592
-9.666561495673948,9.658003598733483,0.013655837421900281
-9.392224316348237,1.0665020923020063,0.04150645941269866
-6.95567595272855,7.077774329022862,0.04712901005493845
-8.66498455868621,3.469679071966393,0.01169226430894726
-5.973281766429201,8.0064624743212,0.01050688896902698
-5.426190853466818,3.367264475066143,0.03794697398838068
-9.505408191688739,3.220427210402048,0.02169331922271875
-6.4071431505901195,4.30401362299679,0.033579619486316124
-5.84971055446596,3.1097966888273856,0.039477808034421726
-5.318910643132409,0.8660967652608254,0.009690692989080108
-9.022923046679383,0.5698224593334034,0.04150635403832029
-5.5689712215045,5.2969552963510775,0.04418246288199082
-6.169688447663972,2.0071394581863498,0.036017572180096255
-6.333245024854248,9.219594457868816,0.020527802962659533
-6.359056072380609,8.276720575575823,0.048171365112213246
-6.680191434847572,4.694014258106691,0.016460475744995713
-7.895341026890015,2.7449395093236237,0.028717648295604383
-8.028058002456365,7.516472266787932,0.03368936487013887
-6.516419265138034,9.649566609680067,0.00093157220067977
-9.413820994933001,6.898125648970206,0.005981094303775198
-6.684826360358914,1.8575892477567724,0.047482260729418004
-9.907040721759568,4.350271529294009,0.019526732435998402
-6.614751394101839,4.427473661901563,0.033589377632031674
-9.505351366392905,3.8633842592966348,0.039309526928391056
-6.655909126847524,6.4226583311477645,0.0420689916322137
-9.864624943573103,4.5932402927370655,0.03129275345708644
-9.637466468742796,6.238110611695127,0.0334503061587916
-6.2524243720194,4.4779502907820055,0.016692328715978078
-8.51259763401371,3.815292512265996,0.030331984955066824
-8.277199092517833,1.8637843165050072,0.048916718728889357
-6.438141872428648,2.8438749284633413,0.018271106943781885
-9.684968404630034,5.015547660912247,0.04829444857450906
-7.457569460452749,9.651240823105002,0.010300617689868063
-8.14110933102966,8.344073267830506,0.03723404505014572
-7.222327005640352,1.8528186879726616,0.02648119202517493
-8.854915568301928,3.9010808511969106,0.04975254605784635
-8.08101939312704,2.1590321014605984,0.022288218751318173
-7.5252801695406255,1.0368155561318093,0.04785435146368801
-7.30604758526729,7.295022893343415,0.04938459582225668
-7.029742658866525,0.23048456625851643,0.030520241559230263
-9.220956468773636,1.8925989670441667,0.04623747566842116
-7.416628401505998,7.53482873773172,0.02685753247233761
-9.07589677592911,3.3221645041435055,0.007337814584432362
-9.081441133327704,9.378351200695501,0.00956875275857686
-9.196384779822163,1.5900165265972888,0.00857329472555643
-6.067409487267996,1.0589641908248548,0.017404833412307242
-5.29032884792843,3.264953997110326,0.004573290918663919
-6.719982263371392,0.8090791169399825,0.03491641832273908
-5.629412896416389,5.408400427310917,0.011721128961871607
-5.5359139726849,1.976673472115067,0.04674863241205448
-7.051588975524719,5.560124761778004,0.04462826745548767
-9.500622020693758,8.939678820610414,0.004805531922759921
-7.029165630117317,5.884264721738201,0.0481454271087273
-5.650460655491985,4.286854750094098,0.021081929683308732
-5.111123631621731,0.8137399305119808,0.01187380595129396
-9.21726944702523,2.7921169305490223,0.006151857305643594
-8.387411281529193,4.421467109188458,0.012000132051295576
-9.736495086871457,3.770517741889802,0.03716370916289051
-9.490473580023904,4.137209187556228,0.04200967023113553
-8.178735355865614,7.446009597756394,0.01788226610116236
-5.051656180692429,1.6118439528868522,0.018455307144869395
-5.080097368660151,0.04831322491309131,0.04454135260936507
-8.630384156468427,1.8660546958754753,0.04754946161198513
-8.800529727650062,5.287897666619451,0.027918982978944996
-5.752661348778777,4.828021070651958,0.047340140123350145
-9.832779623202708,4.3151368641035335,0.010834706738494482
-7.084619202032231,5.62385804890971,0.020192686878106714
-9.815087252927544,3.3435724717172013,0.01073969519353647
-7.214790361795111,8.182427190999254,0.025071505703243815
-7.391085102926743,5.334223507203891,0.012147328329963559
-9.613899398728986,8.16379956206741,0.02798940404795835
-7.27680306939669,5.472285882141607,0.015041493601654955
-8.95844419429779,9.625421667356523,0.042091426574554246
-8.915236538334055,6.681732244563011,0.03373982340963698
-8.437263163851314,4.038619726519718,0.0014172824020972032
-6.336376152290943,3.208679850898033,0.027811318328515612
-8.973919332449606,9.729524866791381,0.009194729328514317
-6.547769219602832,6.016328877278906,0.03215734517284382
-8.44254002165896,0.6003177576936403,0.005919339414941611
-8.316014547834499,3.4714984922661984,0.019813321262726377
-7.8244031415362105,5.311671893396327,0.001475631333024252
-8.239906096810905,8.360009211070695,0.011881315487122813
-5.531227723051996,8.529950236912946,0.04766911730643037
-6.3647598711071725,4.870366077293707,0.002071502644567447
-5.187644107923693,1.0412480606262542,0.04863553845074321
-5.0033643869489755,3.884123555906791,0.04178202224896968
-7.86376960043234,6.288811873850333,0.005554835954400428
-7.747666913033498,2.3552316781419402,0.024158276741124276
-9.646447100284739,2.7419926343495926,0.03151760663581111
-8.53000292144214,8.979706141673564,0.014827078906044594
-6.7567282212554,2.953160960059665,0.01337980690868388
-6.773774749383771,6.540256672054166,0.04152934436105138
-5.454019877020285,5.760712031632038,0.04728158788699949
-5.193798656878858,8.667971398022178,0.01419442690150023
-8.364608701925887,2.981114509171231,0.022606390497933906
-8.274023812339692,9.626299493552029,0.03285864069724529
-6.387126817040497,8.424342828042551,0.049405439517042314
-8.511686421434115,1.4561775589824488,0.007191369754690896
-9.453581892721665,6.592713047694691,0.015360805246210602
-9.857141768067457,6.299248532769017,0.03126995952970004
-6.3297611877332205,4.759638040759374,0.049340984213648215
-8.768053032725645,6.039304381346138,0.042143598967998054
-9.632841289014308,8.708287616744489,0.037744209654574624
-6.6844838962094695,8.806362199827257,0.02108014097083807
-5.67270890358134,3.414130438107177,0.009375138181729626
-7.74392183050075,4.225186217044534,0.024606066267772987
-6.309911704905021,2.915160803378596,0.016934797706295548
-6.149330349272585,4.928492073701088,0.02316774501721109
-7.1507442327981074,2.5262915386418996,0.03557758809066831
-6.4390652313894865,5.28879688903369,0.043921460780310104
-7.163786154631877,7.439844927679962,0.007275470251193544
-9.154727321789267,4.6577201190095465,0.046897403433781445
-5.458605971297979,6.56183765334691,0.008066861349596378
-7.779362043368367,9.000124658921361,0.006200484022159109
-8.125229067070624,5.338401834476381,0.04043708201491176
-7.668026082817058,8.922788190681196,0.002937011577536192
-7.99635855847125,4.5667503947080155,0.04562128167895718
-5.1604757794641,8.751038696504802,0.0007666764480384003
-9.654618533973238,2.9479630068358165,0.048577799601234796
-6.340975341612386,3.186067491371307,0.01397188134593163
-8.326946398754005,5.78710118482819,0.023461468552907972
-9.87568214143938,8.000561656356982,0.04190075962962886
-9.600273472359486,2.1030044778626156,0.02913298513819942
-9.03949968498927,3.098435637717878,0.013695552224757424
-8.873745999312423,3.4298445876832573,0.029931645685975325
-6.522915571166124,4.358803650505511,0.04761263929701418
-8.46363740080664,2.0878527883839118,0.040016708086850206
-9.048795269844454,7.768658965432081,0.011416810576804444
-7.0224526723510685,2.228419528031224,0.04416508449260657
-8.937185400121512,0.747697299615161,0.0037539173667078874
-5.514130552967421,9.610350021888328,0.02734516845882225
-5.461219940118307,9.976652226227095,0.033395718652810255
-8.818625147362246,6.053096307911518,0.021259672231559276
-8.710258616856153,5.778708793438846,0.010978474831169704
-7.447823832142179,0.5625824498498389,0.012110352283299259
-5.189314840208196,1.443214778400862,0.03013652241011013
-9.979274009455018,9.863221105723682,0.033054685968280734
-7.058513477060027,0.8682338776165932,0.04941160203269066
-5.834142749918513,0.9961496196573649,0.004501679688636895
-9.849279203103034,8.089372131538521,0.04861823485732298
-6.770203013697156,8.718541410204793,0.020538290987681302
-9.170130354152299,0.6852528811466441,0.009986391742958352
-6.348330345003914,0.26393320211338,0.03916149833089127
-9.535404193450182,4.7292447538151885,0.040932406037367114
-6.886963959447314,6.842181095176468,0.03344959960905027
-7.2184044516264425,2.037638075778255,0.04273240927898317
-8.167766907053679,1.440396204860529,0.020096484323876868
-8.011606805891079,0.14635271277114503,0.0061664527716675695
-9.962660936857523,9.98500436728983,0.015618433784069264
-7.494842483588592,0.6173511883011507,0.024658555284790946
-5.283095542503508,8.199117416563993,0.024002722445815063
-8.181770700871333,9.136582799607506,0.01539747491180149
-5.98927613906552,5.7615514613296845,0.04371320046942909
-8.743435377531963,2.7591530650590625,0.003855934527197841
-7.572622433152201,4.750283740089737,0.02761073527756873
-8.97645349994718,2.4923638178454235,0.033119078628005824
-9.232183965806815,1.5633164614632444,0.04420499512635795
-9.519677254304229,3.954485618263621,0.012582621109938796
-8.914742094055326,9.924928795857799,0.011023514511678358
-9.155678097697034,5.271706729524572,0.021048127795429653
-5.425067995436254,6.484721813868619,0.004890703557461851
-6.635701320387531,8.330218777031902,0.04993558679577074
-5.675781624493795,1.613767807730282,0.016670485026419823
-8.138452559862714,7.410536402357433,0.039461705292940616
-5.231147158519926,0.8313287525736446,0.01905155377378321
-6.64531622923799,8.66764350360264,0.005638288091028215
-7.130115780254222,6.724182188663377,0.025553770024794545
-7.853174921111124,8.40870670046428,0.0393422299579875
-5.971588405312986,9.714810408018316,0.026350285558387056
-7.63129550338059,5.537104682733393,0.03612906040692109
-7.73606510809061,8.848598283573402,0.0315359596449473
-5.323252675774096,2.9388530734238483,0.02338339117198264
-8.940811278941476,9.451870321211254,0.03352885463158206
-7.899742443565935,5.946960458346043,0.006001081075310316
-6.455309447902391,5.319916313333877,0.045611015575365704
-6.131700446585578,5.523854310317205,0.0042440659271656194
-5.663223266554878,4.827961077432217,0.001283348972178583
-7.950493590773171,8.951905884232268,0.010322559480887445
-7.555868721903897,7.33057505873727,0.043274678756830234
-5.922782734150665,8.847190715074602,0.001197096173730633
-6.841161152748849,4.309294859584942,0.03034066514957903
-9.856069375440356,8.48633899044417,0.0006211509244432978
-5.763261049747101,8.600764318779312,0.02027920504624614
-8.358896659363644,8.205204843858207,0.0011861975565831573
-6.1438521709880884,3.3486938934630537,0.01644730106779207
-7.707386849476379,9.225659764160742,0.007710032915218851
-5.313962604867463,9.751816505568998,0.020006188128592367
-6.398263182644879,3.798857816823454,0.020916339845924364
-7.957742460594317,4.731469421155966,0.006332231781432801
-8.624656105818502,2.211006315999615,0.04248084785049048
-9.678843868703508,0.1986700685569931,0.035596883270610405
-8.95992990478875,3.450143511447128,0.040849728863947936
-8.949959659770418,9.946936305610606,0.037460034219477543
-6.060703406802155,4.976550561585865,0.03640214344466911
-9.708880549477618,5.64099175281139,0.03878300617021187
-5.187170816435446,8.464162006931698,0.019622757244865775
-7.91380361439796,8.779169298613954,0.047162291613070076
-7.039396311112036,5.4842634322902875,0.04356091518830574
-7.680137844784945,0.6333901895886584,0.016430199613367058
-6.534569289665372,7.772126440943801,0.04266810629883276
-8.2813366926217,8.885738659489157,0.028928425595844187
-9.408650116999821,7.178498426078555,0.004996089102391594
-6.893463134277521,5.504125495642818,0.03793563636153943
-5.8837796057555956,1.371146913971335,0.010630355754051503
-9.272118827845095,3.1780340499850546,0.034546888745382295
-5.807840419145985,3.0416401326958296,0.021270318461325433
-8.599135067174217,5.119156681933359,0.020007349098398044
-7.99980495824936,7.351618315397492,0.010609741078500257
-6.8051919154317755,7.820007466348398,0.0451903556051812
-9.63020451110572,4.8382056313393385,0.04816393324872117
-7.317968284133171,3.996351231654259,0.034901212014948266
-9.35663628242518,5.661289927960015,0.013295261647225021
-5.30713785432634,4.341493243574997,0.03909528054368684
-7.031966353782258,9.94578399836843,0.016764288693602008
-5.951527513589002,1.33084060705702,0.04750276112512185
-7.2679712161825485,9.187272937344792,0.021500517823809413
-7.309622099148683,1.7927442309927666,0.029503567755504903
-6.750167804785487,0.7989739487089964,0.03767676617571178
-6.878118963897713,4.465787254396069,0.04325546124826944
-7.863881420332593,4.669494327997741,0.00327174279950605
-5.553681026956213,5.044395263355792,0.019082899993369002
-8.052870078809024,1.2955635100003504,0.038416510483265075
-8.369666386682049,8.110878423586922,0.04065095298378888
-6.727868551663727,0.9803299313525327,0.011883616577329854
-8.014920870535246,0.5791926636643507,0.03242748005238317
-9.980798569517408,4.930254367507824,0.02910302987546512
-5.314599022651526,0.5979330431834939,0.004540907496696023
-5.070805657797201,6.958175557263497,0.011027328263662733
-6.122223580126005,1.6735483784098149,0.007311595431208906
-8.58095105173729,5.089377047687288,0.027661221636819125
-8.155913406739312,2.7954612716108054,0.005552099537451333
-9.227703180912753,1.3304234176877083,0.015807143163336625
-5.007772585344993,9.762337191693847,0.017244152092084814
-5.010175697339135,2.1561845156898682,0.030610163708104505
-7.384180315162916,4.907278377344728,0.00642304723266628
-5.967454925804209,9.583733989342502,0.01635524485095609
-6.615800732081317,3.9098172278302346,0.0366698430363441
-6.147899793004443,5.933089336094969,0.035399156036270946
-8.585546219424794,5.262325307363027,0.042550249700718086
-5.451767428612239,1.2805958108403825,0.019162568351663464
-7.547881507110273,0.5080806317510145,0.006455008577564092
-8.628726808035303,4.938734112990087,0.009847269150322075
-8.846397183655094,0.6332362456586738,0.004760834093908046
-8.778977508317634,6.963660472543774,0.014052145954771129
-8.931252382217268,4.379289456529472,0.028189387796399346
-7.512615412664594,2.6263056890451555,0.029992378875165582
-6.401360739874672,4.005567611789993,0.016179185394517653
-5.10541585465338,3.1019605280709994,0.016688588771684644
-5.8076057021066045,4.28527898945473,0.017793598185857157
-6.2025613489520985,7.21483791591265,0.042902650308317906
-8.254607910397631,4.139789106809841,0.0210433184247841
-9.306605096307019,6.466688940116966,0.015745988232879964
-9.134875157173024,8.872435152160161,0.01362600938143454
-7.372534981958189,9.763053699136458,0.04292471028186978
-9.534315730627528,6.643928948461728,0.023229027955602395
-8.878380526895814,6.569335195459121,0.03969662967721827
-7.807298192695894,4.7776732034566844,0.028408205982948416
-6.417787053942732,5.3908714931499215,0.03385579207695113
-6.489523486490492,1.4899236408943395,0.03544618548675682
-8.745726901466345,5.461016246180916,0.027687190631997646
-5.155798469108034,5.498032468220511,0.006946197922985043
-8.243181211136388,6.529229934959986,0.035126097643783674
-8.361826766691319,6.302337640560767,0.042294530204286425
-8.427495821276745,6.721194586550979,0.017607342438496883
-5.662273660715514,2.339776679294273,0.011120390347994537
-6.790199765470853,2.7018024475055533,0.03646577126829101
-8.055482203029364,8.036138343929744,0.029095111293716742
-6.708854374339715,3.990796757316061,0.006885016893905738
-6.424811687558617,6.022261559569114,0.008422851409586363
-5.7968871199139365,6.906671846077793,0.006069016028018271
-5.542465925239158,3.578270912369562,0.00024795543961221854
-7.529094813362484,6.8884184872338245,0.008260072281451153
-8.777856462730535,9.090947244084797,0.0059449045977008124
-8.443437676350108,7.493852094053076,0.014409296279674466
-5.629070557692795,0.9605109928001054,0.004717610716062276
-6.484916050771199,9.757169462920519,0.04937752799726811
-8.355223709022454,1.3075378026826834,0.04279042575751471
-6.382290175514239,9.637753835194703,0.039019298353770236
-5.904379838105637,5.861929293097886,0.0035587846074064847
-5.16877868077178,7.121020609810985,0.02362994995246717
-9.896386819499005,8.87897816321777,0.023701990961254638
-9.859200033047475,1.1792252999203756,0.0209882953754985
-8.911371325706936,4.49468977082757,0.014693943337799898
-9.16849511718591,2.998049542088145,0.009235671497037102
-9.702048479938098,2.1730030775404163,0.007934223039477235
-9.106691043868324,9.660480893846175,0.01651975747720198
-8.557511734184974,0.2779254826918742,0.012922684844437128
-5.253342094723836,2.5945219957261125,0.026293999701894624
-8.433302550313382,7.752143645930408,0.03865231413823441
-5.863825427825967,0.3541343753836734,0.04551566423980187
-6.273608124327673,8.118844073128212,0.04622665535560109
-9.803862165814934,8.77575650502933,0.028689605024542392
-8.17760224825672,5.858268781659961,0.0016480375396077385
-7.59321049545596,8.390477681164487,0.044973648594704076
-6.1199926193886345,9.487365640565017,0.0020689725997821875
-8.96114872446039,4.132954287839273,0.010175221417889818
-7.609966692212166,1.8005347262558213,0.034917863993804366
-5.765515332898194,9.722370705298234,0.0475735060189634
