230.40585933502643,-137.77449151453087,0.8079514765347027
-152.15422560058124,-227.9571456451118,-0.04126347567818528
356.1115446949489,276.53517103393176,-0.2565232369019101
-35.808022295051344,152.23975968285865,0.36611614408500265
161.74512818592547,-91.55846290924102,0.03408145358300238
98.10635552344155,-73.50387567530655,0.1442749942964382
-484.427932610927,-225.86950176923844,0.5400751343320926
513.3322268509195,32.76277406738673,0.21776101128662942
-111.68317659422928,103.45014482202109,0.611144671656524
247.2360452647545,87.67605939671422,0.3753036309240242
-316.8408737866554,-14.72125758651174,-0.08983556763705441
-92.42602008679498,8.37945490953351,0.9737700934701081
-92.56559373955409,-220.3763058420668,-0.21002581942851373
183.59830788687063,-189.86367660414027,0.195641181759648
-100.74307062874455,-122.49314350538131,0.1334902737342063
-67.82391053795739,513.7472637314735,0.17603235974837741
204.00712443245968,-22.101601487567375,0.6337251061489126
21.132347397731596,157.5785816209446,0.43860795170327294
-396.90970662870194,-45.6234887394771,0.2954141889764871
59.0414223748827,-148.81340492964387,1.1714619440084215
197.45799989720064,-397.63911338647006,0.036450554831034654
28.665551864575285,222.8825090300754,-0.12399914489371383
-37.20359338480447,-312.34595199677824,0.5056892936394914
-183.26917203719634,-199.539885467691,-0.45921187634204547
-46.48502699957751,16.668077943307793,0.5275902867115294
-124.13930230520126,77.69559807554094,0.343224054246671
-118.17018775532193,137.12839300036825,0.8035349310986339
-247.23352785353208,-310.59387574531866,0.8196489919094772
-4.378834767992787,-132.67680670631697,0.25583517048569643
-423.2419786311837,-94.09823436037617,0.4150402830647815
131.30998632157102,43.480794597116734,-0.6377412681603287
71.40038683804106,-20.08221202210317,0.08027066292057326
136.53909335825915,2.6848507505206225,-0.18367274968970393
49.14380532337271,-369.53970351169,0.7444586077195636
-144.7384161608236,51.946966949161634,0.47091943671402803
185.22821611165884,23.299483475833714,1.0623787884458786
-142.13956713462696,41.650420208512614,0.330614631529925
229.68501169732343,-39.59878147850521,-0.07905636824045875
103.14827670734519,-380.0313279712432,0.4910194527624954
261.58337519431376,-21.20104269797204,0.06827377299576279
-125.46241684775666,234.25663678246323,-0.9897550045046848
193.56737933822578,-408.72367945011916,0.04240011827026918
363.0133664819237,223.19599039419495,-0.07081821743576033
162.2347424884123,241.42020220581486,0.7442342047776827
-594.2239736573601,46.5938440607384,0.3236135244475314
-28.517522315567994,-62.12470243303563,0.7761246110537545
56.221334374394324,-53.94841937233662,-0.2981296602693759
-32.44240899143547,106.93617402943462,-0.3629197189048698
-54.61777581518843,90.65808961809846,-0.5953954968458535
128.0724360979533,-123.98668824958041,0.7228451554755535
-44.98219752812197,-372.87691391969184,-0.581462370929873
-163.24580965311227,-109.57227159458765,0.5494091213058967
-1.0542055119891782,-256.7231181138161,0.5835608018437164
137.90366804071232,-206.55621953502057,0.7493503537246478
-406.6697763905972,-543.8392900344859,0.08203092198453059
241.2282716285399,0.22306674582698074,-0.2753304258834778
147.0784334844807,-31.546812272383534,0.8265748366880827
50.774171219396834,-127.6437478380686,1.126610055259463
-67.30988661901137,-213.6788665721733,-0.016048550943467493
-126.2118944600224,-320.1723184828492,0.13236953345777308
38.45909276512128,142.19916957896945,-0.5221733769472683
41.59918172882822,-153.89100734159155,0.7680033436336251
-67.81262519744905,107.48393664166626,0.4324436157442879
-279.6647455984055,-193.29242561851606,-0.23940023268640198
313.5104934252668,169.91483173329135,0.1928718550179864
-387.7564274411179,26.394339859915906,0.08103583998196079
-16.936479127528813,332.4084843647058,0.7955748652909436
-108.5317153384524,-22.120719110498218,0.41314045944833
20.61009302118334,-234.36634383556068,-0.042119375230623674
125.2598559105933,-195.87479533291707,0.0935344718825492
-159.62373828496575,-316.2619699018465,0.7832697321302586
1.7464377022721511,-125.34336429192976,0.19193186178566507
271.6183315309987,235.46402619547854,0.16928820800114938
-77.19670242374093,-5.80540754883806,-1.223589589580834
132.26974516488337,183.72246329156476,0.29613164790035107
174.93732992139422,187.0619005701418,-0.27531617332286235
51.87938533602442,-165.28628025419056,0.25210329811267573
-169.2190734975628,228.96616276786324,0.5318770672773808
300.75824127002846,-175.72949550187138,0.6055016742808247
16.798425651686877,-73.30966638835885,0.22263275725530257
-51.718384091321404,124.57150442378737,0.31843066548410864
327.79906295775527,-208.04893153363017,0.8382429593773026
290.66308956233456,96.62318732885265,-0.18198224027232018
274.52289866800896,7.665283582581162,0.22256619777633596
-417.1189206388747,646.0216442392139,0.5560000241945227
70.40946386472491,257.6673129279044,1.1060067610801538
264.16279702526157,335.28326818126936,0.45074310887937313
-166.19948311925899,504.6561103534853,0.5509604033357165
20.611213473700747,117.72747665626153,0.9862750462461445
144.74828779454015,123.45103201030363,0.02523618288465776
-336.5199333386878,91.77584815115918,-0.7960980073312358
206.04614004406193,-44.77086550585781,0.9920376119285275
36.39495244021947,139.39668240510838,-0.14756254268594798
-77.04389837549178,241.3837623277495,0.7128444067612463
161.2721853849328,379.5589926882338,1.0052213704346302
-340.1722722284549,-145.38040062060787,0.1700009791112451
500.58018348881035,265.2200123056801,0.34801921571726924
-81.21633316354465,164.87195239315415,-0.5199682190243444
-109.23286072427749,221.10122084048163,0.526928364022249
-182.8797832095658,-144.59192836576267,0.12450109204655982
-46.77052420696428,-88.31149338789852,0.29602671565081184
-326.0411003596286,-118.85261571945716,0.36650552852379525
-159.64758596216717,34.283676538760915,-0.02848994481634154
-257.0905877840014,142.02843648931122,0.12244865906422851
62.01753807005069,330.9674412401895,-0.12927146321462107
156.17699433917656,-149.78868298432198,-0.22216347610665027
180.600878581894,-238.57089306084717,0.8826783708673158
298.38701824797073,-211.70529678485224,-0.05447147600539909
-168.49821525855816,75.15485328971803,0.2613806663099538
267.9657696652889,-14.15239407660842,-0.5060666958480347
247.91261049839287,318.3324685608874,-0.027164982934634097
-42.40528053048913,-154.89656525180033,-0.25684777420510163
183.96353767868305,345.75951009588607,0.3009827947697823
-231.03499487427746,87.68249040800865,0.6332378370483771
77.6822625681832,-289.5912868046097,-0.09211677616955616
-344.9521388452927,419.7096502454416,-0.23242498731888145
-200.7687721461095,4.1611451812381715,-0.32051509972875264
53.634148872664255,-141.19622460613616,-0.333438899653486
-29.696601509455217,42.666436708925616,0.20846372639195324
583.6509867396203,60.085580192591145,0.7798858203074475
-175.17813574385767,-362.0859247877588,0.5288161663121702
-49.616712812844746,44.68246903479807,0.3362539790260045
-302.9954206234015,364.11980603475536,0.3420463664641882
400.9710828351702,-177.24791791398917,0.02248829258373597
474.0959353436044,-215.41723962781242,-0.19265615974582545
-20.67552945123399,83.82915237308772,-0.08141774424446097
-117.23767914849832,-41.57710245878582,-0.40971221386060114
4.697946879306478,-246.27043027523908,0.7808866549444882
-119.05741438545246,-291.3087424822918,-0.8798969216483821
-64.14508232312328,-373.3038166226539,0.4167278042164283
-216.13769479799228,-290.8414341586843,-0.2656823283876252
21.258454636931578,-177.95807290257721,0.4734870014697684
32.21297652305516,54.1788828118126,-0.3428927911707584
-230.2285368222729,167.8090473403851,0.21600094007092277
60.56378637062527,-300.47128947237627,0.26209632435442465
19.18015605365157,18.525967504261338,0.1890518367727632
8.440703217290112,-36.551504099069895,0.2771396456979287
198.38583005691297,-105.31945536534482,-0.193829210482453
455.4193333187977,200.03037677927057,-0.06316435556344241
102.7187564538197,570.0732469473328,-0.22203533289297955
-165.85676576195178,-151.5630915374989,0.2924835925243674
-128.69953274062448,-92.10212669308473,-0.17159822590656953
231.6874476723235,10.209046810330651,-0.21066750326503642
-15.329891455913675,-263.2507482671963,-0.04366735707690908
-157.09713699952547,53.14650180757391,-0.6264698988642361
-315.0688062687366,-101.29692464403021,0.40523275106080936
247.27567177519032,312.09434635247095,-0.49947155138406557
34.934357890039394,305.34430818801866,-0.8399910152966048
-162.22267465018683,-69.54285361611926,0.3230957741940463
6.023621461340167,-260.4047702377161,-0.8524233966153894
232.69609356254426,-143.06158740635283,-0.15318246086398124
-167.19589928412566,144.30796351938278,0.0028550754759278374
-214.32804907152016,-356.3743481019661,0.6227169474169432
209.39746127811785,258.1699279117824,1.1524839785364285
-193.1347062512802,88.71252975307635,0.3097828717370814
-49.03829899907606,18.56573041423251,0.6476676780934068
-302.1478349015401,-271.72113145593426,0.1911041878706713
-126.25245345110858,338.7597482892499,-0.3131960409234878
67.74057172290965,41.85515520452726,0.04212251699941827
-158.1835874422492,11.49840138693239,0.18910478474249842
-178.3318910359974,120.61216314543712,-0.37246761865420824
-63.86979892826079,-107.62365193663382,-0.6711904516589071
-74.49143114005814,346.3908347996494,0.7065000229164349
-70.46536760950815,-36.75442352157769,0.9683026575329221
-82.17023116587056,-508.5618426442592,0.19460645468828172
341.6674063499272,-102.5720910950572,0.5563216420512092
147.030843206459,-67.82707026411737,-0.4482317521696068
130.87020639872736,189.59085131377432,0.48575518688828623
127.91520114171398,-139.11466146830566,0.4174882464881917
24.803648401822027,-51.50207144588814,0.9195529850275288
-206.84888746071724,78.08085219987683,0.8601957338278661
-131.66009688633994,323.1355134547994,0.39277907509252996
103.52263569294742,17.631082664535235,0.5437887095993165
175.92960833503088,52.26442848849659,-0.23206752620465598
-233.1598618512356,-134.97028572998647,-0.6582523657926445
-107.17010503692552,175.94269631834055,0.06767893949029694
-207.89507610875572,394.031640589142,0.16436953464430937
-42.78814481837789,256.9309603351139,0.6090166439335696
-75.71852473568676,244.58629628973156,-0.22006055522149676
-50.48226047779303,-143.16669683202235,0.2125938030467449
-436.6459860729325,51.920389398653874,0.9569596892003509
-74.2505993824022,-131.25477117934088,0.47846822513189136
-349.5069489437279,242.32490380558414,0.7111131175067933
-119.24667556154822,91.68952831864515,0.20251669489668744
-430.99088810890225,-44.04437798437899,-0.04850004953847303
-204.53686257257954,251.00705625737442,-0.8849165729803061
173.76513432450486,-220.95356178227442,0.5883931550997139
32.09471899351326,189.4368526327324,0.37076974640453714
122.11771963356534,64.38063596491364,0.1734288878316013
194.98234867993793,-229.77360936574124,1.034705871475135
130.18139770876851,210.4714339337816,0.33397097159490075
39.43493855022134,172.42277978876058,0.09738624189057422
5.233161295143912,104.11506230790575,1.0226466433945791
53.36753791166557,-98.56194669009493,0.23210610549707736
138.56586454156164,162.47624425750013,-0.056730243494146404
27.77423959865755,22.910577328173257,0.17337675092372307
-54.13213112624471,250.26278976510628,0.3083939925500726
-67.40629217705805,39.34572695884648,-0.07757880185300997
295.6286329290949,-181.85185057370163,-0.19770685706608887
346.9884120361357,203.6169553028404,0.12169002596231283
158.5993756573266,332.49497635154813,-0.08801133866444633
108.26748566913228,-112.55784157707922,0.9493287578088383
-195.3936760191888,182.02962236286848,0.38304827093543947
-361.38839946190046,-27.218701100334762,1.2221274848323698
167.99303178751535,56.08578979491785,-0.172736834062989
-289.39331489510863,-115.4883178277079,0.8869283119822204
-95.32135018612716,60.61376368645098,0.5617905151764533
33.465613853013394,60.603502719488155,1.03573650523245
63.53468363891102,-186.66758494618304,0.29464628044556096
-19.80367647092105,2.520826000419454,1.0430235396527332
300.2065798721261,78.39845624780335,0.3600216477641345
-349.57917320294644,-128.0961741503893,0.24944398153730094
836.2141741800914,-239.54892199277484,0.2563333133507888
85.30023805982535,-248.06053455077372,0.21579081881991438
104.36134365444154,180.56232702210866,0.06653969299251844
3.062538971639911,-9.79561935186443,0.08557832671925797
81.48041938916182,0.2307161796544917,-0.056730516211899784
-0.023558133819890602,36.00241184576568,0.33145148952271275
-107.74632039413812,63.69307396713523,0.1267214044224476
-362.88293630952586,-113.38449970883693,1.4416100401972654
97.47240437355165,137.34792244636338,0.775672316497267
167.7471008829168,243.6460510786167,0.4536896930749062
-127.00029707307093,299.43507915067926,-0.11398540353825892
68.87625943935511,-219.90887706663648,-0.38909964564719063
183.77065120971125,-199.83897601046928,0.8444111904272402
-210.41848622307194,56.59272110541175,0.5820949417462344
138.74974967963863,-102.86434156413455,0.39516485113270355
-114.7360398165511,158.7763503423352,0.22634431189569373
447.0363561577532,236.19608174640047,-0.6071661792040157
5.0584516915687265,211.45257491194164,-0.376487736041659
-152.71514070801194,101.11834031585114,0.061714995120052046
42.66510752504084,-244.66127618486948,-0.7424484212643747
199.27409543389166,-139.1740041444062,0.1996845054010326
-96.02787617228552,63.02552579713341,0.5903257235196104
-291.066371157268,60.608593659094524,-0.2760291572680515
-209.847884029656,-79.43104429181535,1.1399055999087033
-301.6662092198949,-50.80490515931068,-0.43039803965474316
-126.53341756099283,-61.71362189261129,-0.2788783267071836
234.60843050288415,407.6837529364786,1.078049914189226
30.335251571691916,-129.7614505952706,0.5641575902986589
-88.92842877445915,90.70506987079644,-0.4871815702202364
255.55858919747214,-4.500705952178715,0.6320982386019853
234.68439512046527,201.38726781126874,-0.03927418764966242
-66.19310402312716,-79.63505309632005,-0.00777780683091131
-73.4756600265143,-117.77564150491366,-0.07902559748095006
-94.00775640584938,45.46076624699781,-0.6894375931535894
-186.91645464458668,-30.9619299022657,0.5070782363603805
124.48272776222447,7.16689832961087,0.670836870881727
-148.12962662641786,298.20634942717544,0.43521947428418173
112.5826103584216,-162.634579303279,0.9607664317249567
39.56002922552963,-257.9702791734041,-0.21527001656961758
289.60460454388505,315.2525926779678,0.8912003372804285
-163.15395315665242,-61.08712031413761,-0.5175256617654647
-466.84815762123736,-50.25385580517455,1.3984091624993182
-78.19494219204984,-357.16141186170756,0.08999767413206863
-89.71509104295754,-315.6752240190947,0.4670273104922799
383.78620455535673,-100.04551891520785,0.1361813668318507
72.21360345851038,19.137376276149762,-0.15318325992501824
-254.07267900545904,-81.92189282796926,0.25816538688555846
149.59219132066966,3.6006400338227427,0.6876652562736452
-80.3287641165188,-28.159200500183168,-0.012942396268539491
49.60206740934161,160.3033718865767,0.4371611468324995
-8.93814863817113,306.9633522620779,-0.7977872928788097
-363.15451612505905,-8.279968009402669,0.39248833300654706
322.66134235593296,124.04352225353486,0.1281219961197657
-141.2979039717765,-145.9224237334273,-0.33338436941541555
225.11341850838807,196.90179949052873,-0.05764756260131393
-237.38508401663384,-40.57740037465602,-0.24936165460576792
319.53462163063244,-133.4266099384189,0.18317595128491987
239.49358665481716,-488.1787085253001,0.24459775071594222
286.98295175847363,74.3708658143498,-0.3233030023305484
-1.1740672770709342,11.141452276802735,0.33218603508381356
70.81326203900244,-182.86738951175275,-0.1718783729343969
-55.78501420291894,150.8816184785101,0.26370645377037605
9.339204901826866,-51.529907133785734,0.44851596597233523
-119.73215456766427,164.00013345486624,0.3960077686619073
25.224927732873116,-140.4934527676134,-0.7106874191213066
-161.85001428937565,-280.59046166926214,-0.3066993527702803
-274.2591761922336,-319.9186689868744,0.7938292257977984
-348.14814923576296,-235.64140814854989,1.0598838299128048
-45.66401456018699,168.39666954486378,-0.7567465016873225
18.378346305186557,-422.6206142484903,0.3885707212954246
-84.5792758438442,-24.76153248428198,-0.382857869369213
131.65279830324863,-93.28975148137546,0.6664989911360379
-156.5683682612027,153.02758937062663,0.8518636588539652
-258.77035283173717,-211.56705664214078,0.2291413710970945
336.3995145134568,-414.5842444281012,-0.06557576734499693
111.41418733148221,-208.5094410976454,-0.05806481022660748
254.71680017933537,69.18596445932505,0.21631445145010747
199.73899330237916,2.8295829055106987,-0.2792292236716877
93.11320534151919,-92.72043409562136,-0.32569470729776856
-279.6789282723477,152.71934794362002,-0.5120322527730392
27.23408001669857,374.1662154561977,0.4533301198144748
55.53173777052525,-648.041492738624,0.4118532923045607
7.507997007230529,55.695165817673576,0.41395311030074344
-115.60388459775379,-150.818032942798,-0.8383472328384536
-105.94105549356027,-15.277286829551908,0.34000928275318276
-208.4825201894691,123.39110984532682,0.5396940554551168
143.43901607755672,209.394423168587,0.521073351620198
45.90837533529859,-415.73469320744516,-0.17122243633748113
304.1414438387387,26.13389120891865,-0.07083652254265776
175.03402862629065,-305.4763844918376,0.20243764586220847
-290.8902997475452,240.535768114035,0.381618800280186
-15.292232356380111,253.70953579011655,-0.0333591898282698
201.28905518332297,11.715257472860861,0.7555889753337732
-8.394557729549055,82.32866878382654,0.18350948610007464
-557.15224073589,-44.87658165393566,-0.4323759500586785
67.75493077854242,102.84672843758062,0.3712121477212495
-156.31774716675903,-14.84253772147382,0.6553333664425124
-365.74738337153826,190.17367942291247,0.06627414846331633
165.00815308072836,-375.9134855838635,0.33015754437594413
147.8849424357625,-366.21614881183336,0.4288797678974865
555.9649106452894,-14.093996286707686,-0.3061221700283279
189.91593971102537,-120.35179167344565,0.1657974540296364
-187.8554393289908,108.07316870714634,0.1458725197254982
130.96882868264524,-60.6667662234848,0.04790212656625667
-450.9363567885798,-51.52522836012612,0.020991485679202143
-130.2895988492621,64.5266774419353,-0.13194153087138516
14.723458542808189,-8.754708777170897,1.1118082292454137
-317.51600955575816,-289.91617914905635,0.4384470045915888
-47.89620904174283,424.7308882507538,-0.37287634035026024
133.20907577327398,11.009826216729579,0.4841608373557256
-240.35395554141834,-193.1326192139828,-0.32074601217334725
-69.67295493764131,-97.1283972402215,0.32021283148026464
115.22476753908708,-201.50870806478255,-0.08117359287859849
145.69995040814658,241.56007734630842,0.5960665725919465
-115.02050517401892,-441.11443455304595,0.6108318449812211
-122.95923271999058,103.17324703460045,0.48223703850250416
241.3198652162505,-93.66335953241082,0.7827588440778006
171.83485911198122,-120.544350773735,0.1207284298685706
-48.56763072952994,-47.48969235159928,-0.2589448170065257
-119.79207398629728,433.3795331000916,0.10200036530475183
-111.95599714640461,92.51004865647076,0.45577371809682404
-16.689165447587367,125.1622462569404,-0.32162745072109794
-87.18537260044647,114.43832740850215,0.8197467360032971
357.1718616346693,-134.28473627929029,0.37096121950606287
89.23944320722626,131.33290544654642,0.5617873570622853
245.87674884297002,-143.34314153689527,-0.5270149007212852
85.11139010176959,-562.9716485867734,0.2629177927799119
385.808873187394,69.67056293571132,-0.4188642469009289
-178.9367641209403,-182.95250866909882,1.3580543089136239
167.83299059736473,-178.62036849486657,0.13386022473450052
212.08220580676215,23.226265488463163,0.46830664028988167
136.59439107986486,56.01257446596627,0.732130865009061
-114.3757640221933,-188.08072947621056,0.33850423579708555
-151.27673327166968,196.8843615948474,0.6122652615792255
105.55429925089061,120.24541871845923,0.5780121291762018
-41.19346658770469,22.665732943655634,0.2044198805969116
-289.25600719445305,-242.82772679813402,0.479247785028387
-262.5667174820599,-102.0299317163169,0.4300842876937887
143.52361163683958,40.14061821107621,0.3063819214967185
-49.76651311745549,24.781880575128096,0.9825339481092683
-190.502464095182,-40.07262562505686,1.2512044085852938
331.9853361683098,-164.65132368350837,-0.37447650574354435
86.85692411361731,128.01816097991014,0.558880153813164
-363.75470631321747,97.97595304171035,0.540659564576977
-75.02710611400963,-181.0800603164095,0.1315484781976396
157.64869611391245,-43.582737472086286,0.4018312092055054
-62.213329380047746,-151.92987870261285,-0.3065613218974252
215.07751357814143,352.23918262373604,-0.5306694625907926
-223.44291614913115,-154.8228211965797,-0.8610139732803155
-485.97874748650963,214.38947926819424,-0.561746433502716
153.68260352222592,-78.50188078096423,0.1771742344904316
-376.1806111802302,60.798371304002565,-0.13555028290734328
-35.26349633843875,124.5727371873808,1.0388949018120293
-202.16931476425262,70.76420142571311,-0.3748205429997012
-151.05387756804603,42.293032973251215,0.07792412372663766
293.3562284139474,-26.83960551829379,0.1995558046609442
71.58889848308523,165.0917913561146,-0.20802766772739578
58.601458284365016,-25.302627644432484,0.29475547614539965
306.02515798148437,5.544961861193517,-0.4385959816460499
-313.38725525530134,-279.12578222893643,-0.414369967737718
105.45706899876137,-20.4856089941963,0.43592746315104214
-50.961147193596176,-184.42975821436866,0.12129053838414115
171.93052105842926,-490.9808670601311,0.10210919069310304
-127.73878197832093,-7.370600149571454,0.5022964572525501
200.68629330851996,359.36692763958797,-0.5256679895695995
292.80319506209486,380.10732232245357,-0.2168616534534309
2.403135135843962,330.93726855735815,-0.3372684893233893
11.653281842844322,-114.79988051382239,0.6001945284883965
82.83036138731751,261.795632603986,-0.12757889840101555
163.90952057563072,51.50260385582824,0.24885989359909105
-238.0970822924594,-85.12575822674154,0.6767306185065198
-78.58035265307049,47.18679204068567,1.0709087821943812
-152.45973586543107,423.5470626689756,0.29927318722079815
392.26773026125244,414.9859381436369,0.7580047449733214
248.06224974840507,226.79828224016435,0.1669598359241198
-216.18068918794808,13.50687022960898,-0.11011853310004305
-127.52182003416968,-281.79079728904867,0.24677682479428792
184.11581890282164,-230.64692243167232,0.47151456575743766
-207.80142442518823,35.420170371784906,1.1274339905055486
-179.26055239382688,-224.04358324539024,0.12415484317637479
190.3596997740125,180.90520126708842,0.2393654148852623
96.69303522261795,626.51657650507,-0.5219356655971739
-268.34057135382903,-121.60977474441266,0.641093517231738
79.30817669258225,26.728687767834618,0.20747734314896907
-44.34939890399495,-100.55150846191863,-0.12218546814621961
265.8257533662468,1.2502504837098647,0.864215663326374
-237.73949688076362,284.8966310966712,-0.18491233152077746
-270.5937424549377,-98.21713504722148,0.44173695326416307
7.418499067903207,-77.31331973549287,0.45599661961646576
123.07215278880402,-127.01112669812964,0.8453757288059178
173.61865241764355,-111.24504233440918,0.345254903458889
-211.35083433499267,125.6109775723252,0.7645395850475674
-232.17419627665996,53.67808794884221,-0.7712552241764519
-157.62956523891742,99.06259617397535,-0.35487343104629027
-84.68297913559269,232.19654744580146,0.10475054754424755
-47.01493946900409,460.81236105630256,-0.37209506395903563
-207.57065003544923,167.4742375745252,-0.09587684206037661
575.3045831659672,93.02094979105713,0.20833285905273846
462.9414295362028,21.852176798596226,1.2118751673843124
-148.46539452962685,325.7290991215233,-0.4710291779422037
50.597868831970615,180.7324200601122,0.01586332788276215
224.88656243823297,314.3102930783719,-0.3900653201024073
250.0382020132852,-257.6312333226815,0.5144681162722613
-356.8013120778404,385.0716073559492,0.39366864403394497
-321.7236822335387,20.2901784942475,0.562172684005896
93.04296122303872,225.58237389982136,0.15188424224622463
90.7047343998817,-160.0561225769048,-0.2896489299463643
187.6750062420964,186.55370899418412,0.1480506504029258
55.909565577566376,-589.58542082954,-0.1387337556749308
-10.520636703668966,241.0758637479785,-0.13364698737629144
19.03880219997323,-97.50761648794695,-0.9097952957804836
123.40734925301564,-52.01155675141044,0.6861837375461175
-105.14822199835152,4.491926002515025,-0.07599841685116887
2.0960472299898067,327.0614468091532,0.24288090517850736
148.56020394502843,68.78194277091723,0.6219788130603323
57.89036770024394,146.0600281169869,-0.09183232654349549
-43.48300447448901,272.35662272708214,1.0317540970618622
69.7715835058025,117.6284364818716,0.2322465709272
-75.64684586371752,-119.18641060437277,-0.38129899030976216
56.64305237479339,83.769936502661,-0.3676467785546586
319.4620058582535,178.52150917378137,0.002658007566669035
2.8370172337328943,29.653152488954714,0.07429388058947345
247.61673741382552,-89.7651313288333,0.6428309056353156
-5.0756995329208365,141.77991913926564,-0.1110948149614222
165.3410400028109,81.20280611261191,0.44249153636312977
136.16458857875278,61.56688796467006,0.9112749730741552
141.55027204192533,137.20991100835957,0.2555892787028433
273.8255108700802,-74.45416917807925,0.39932738853313704
-325.96200539499887,-10.836051949846848,0.17697415040627118
-382.29553560310535,75.72879560934486,-0.8176460480454957
53.228333290471674,90.24777515476504,0.4660198406345675
6.919607607853476,88.14258175282518,-0.30058740133404566
34.32208574976129,-289.58970805791324,-0.401001991805273
301.1197401331841,-248.0542513450772,0.7427397602780728
70.04337418201877,-126.08527257390823,-0.09749517635492111
38.832211104607445,-39.73430027181738,0.23726805002292808
-58.493077810122884,99.51322604021563,0.09130418886252968
455.50750668293966,-328.96486192469655,-0.15548297736217864
99.15272661983272,-130.114643614107,0.2787313414938263
-24.694148181062424,4.87043729615901,0.11754290436345001
-110.93316748518384,-268.1083111509913,0.25515050200668865
418.4747492795855,140.70560245344052,1.936297978437315
44.55977147951595,-5.946893938482729,-0.6181159070626072
-36.01917465668993,92.9587245796087,0.6300278732344139
97.93877514290955,-37.848409711968614,-0.18966231324976607
0.2514101326351969,-215.93686914147094,-0.5305486090209839
169.51080364742992,129.21650620125573,0.8785879106024086
30.47209066212207,-91.76743983633457,0.6224335123712319
175.44063813729036,219.99579960610026,-0.24949995144246356
-81.76247416448723,-31.163323329576,1.2349221198657445
-230.81211902247944,-10.130146844875423,-0.11543807825845781
41.23370987048147,350.6520030308018,0.03884968991817736
-16.882277720072366,-87.31674513407121,0.1652996740506775
166.7877388498077,312.50801098235803,0.06304570308901541
180.62763557773062,48.225188135186364,-0.5299314121833998
313.3815642139648,81.34823025355969,0.5611420518636545
-127.31051854077782,-333.8753562060588,0.08185733599063287
-78.18287123687334,-72.90980149439723,-0.3646551717767789
-384.80079569630635,-404.22775719195477,0.25455478829222555
156.0777581270055,49.37180630458782,-0.017379316665327188
0.6422944694392809,-148.58217833736177,0.30369545619516775
-227.72566107386098,-68.87645511132024,0.6240123851798136
51.51922340176629,-32.66665520657304,-0.6219654649793596
-38.575027523434116,249.53618158993402,-0.260676101414337
147.12544325066438,78.24552326933247,0.5763705554276137
16.105890196929767,3.809210933855652,0.1479338739323388
-45.03423194142861,330.8848627896096,-0.35845452174758213
-113.24388824620158,77.50424687586339,-0.4768740150989977
-241.68232253085424,174.46114381922368,0.1512804273160857
330.21845674300374,28.773154256987997,0.2897989151867264
-204.62535912939023,74.52379766634382,-0.507711674571629
31.75637025648536,-22.44208277762168,0.6703224467601777
-486.6425056376779,189.85215401898344,-0.171498224537024
-12.64750336454116,-62.66049164296517,-0.6344489397429645
279.63642951025855,229.7170171942255,-0.5546696909345175
27.493936128689317,134.80258354561764,1.304071872847645
58.45724125590579,215.49819893874616,0.08669818401527053
16.93294870642692,135.32923292273313,1.7557806415196653
-290.0257844378928,-305.7553764027039,0.6243068551297619
130.41365849311683,33.06279896923137,-0.7252041170106083
6.729513438118291,-16.00453941003625,0.7665878725269297
180.6715396265959,267.638999920123,-0.6415564052356895
-182.22055639922016,45.543902368954534,0.021756052924035207
142.39576771038222,75.72343805221904,-0.06795552690976414
-205.15457281807033,238.61409175392606,-0.017812032837378505
206.07577523008135,-119.83595216801137,0.1882498723504683
238.89598670082884,99.4111489173643,0.14784529269062763
84.32942664739768,-118.6955494450472,-0.023857182942879418
33.651404163184175,-201.28654720230915,0.15078173106610337
-43.465475196305455,-129.87593801145223,-0.12124732306099839
285.9289637556666,-223.19380335086265,0.5908920986823231
157.98818011231447,-390.55995701494237,0.07937267418023346
-190.52161277741217,127.80919699371549,0.5834945057825698
111.99400790401499,190.50569009660282,-0.44900109536760974
378.71305612904104,-133.04206673984135,0.5824241381521733
-70.75364203601809,76.57213568209963,0.1493899636483481
-14.520230718624491,66.68517247809999,-0.4960911630176828
-101.35604523841859,-221.9752810469614,0.09203430940275428
260.9451627886781,150.01533973564818,0.366709834270395
149.92669087898207,-140.5512520531858,-0.004397778647512618
-55.47654220168131,-241.73984131349525,0.0667187424827683
345.09295203145626,-27.707736625587735,0.7880046138708507
440.6062858505193,6.497601181469784,0.49471089633767207
-154.51900518806477,181.03818771218025,0.020165156911833293
137.64230024333906,-78.07710874234584,-0.8049341509917609
-178.8067723940448,48.85415846014416,0.20452658165223808
253.21865448611817,-189.16634876388454,-0.1775404367264361
117.93679699599832,-139.52660028252586,0.013189878736701577
-246.94793603638178,383.680954516897,0.13276538427764706
117.49562654044048,28.083732332763805,1.3100514071407374
102.41261067287846,-15.789052395096078,-0.5983581027743876
-358.53896503893566,49.04320351584236,-0.22637640030342515
41.9307988718026,187.54801569457402,-0.6280589723183911
-27.462251821541088,37.818013042234064,-0.14554881545555248
-59.16044407100124,-271.6893246371486,-0.18787640816418283
260.55500172962576,-315.73575368805353,0.5422515607541503
292.1634257721676,212.79145885291842,-0.9052157050988536
28.980081985752598,38.640560311361185,0.7811116617253588
-226.62324897460908,131.33017013852623,-0.23873850004238617
32.41381574735499,212.29361071160042,0.01664311497212348
118.00349443957394,100.5816079286874,0.5078384546177428
64.73948693260151,-157.81336356546302,-0.37138009621700147
129.19855869619667,78.1769304402113,-0.6334457876817983
320.35837490636334,-322.18424648805694,0.1982329891895511
-246.45442812548617,229.17083523685622,0.604225198158302
11.82407716067603,-257.1905487204293,-1.1582518015807723
325.73332872679737,292.57251640035884,0.11843826473189294
-102.79799021477334,56.297851673683674,0.11767340372522457
128.68618755095093,-114.03734128842204,0.4869519154676113
58.00032165768887,-376.63341575251536,0.7675897456533578
0.018273066141565267,-99.88621286108614,-0.05684545447491263
-185.70621640344078,-193.28250870612806,0.3185992367726363
187.1191036905515,93.17613394433646,-0.045255388307615524
-389.3373859587532,156.46655259615812,0.3866147868213377
-73.43304856060578,79.9992942936809,-0.14813673747182765
280.41601577784786,191.66235007620605,1.0179710619127378
153.8539117727254,-180.31510753681474,0.5330726230839351
-19.741039400221773,147.18467650641404,0.09868098365286208
-316.15858124854,-114.12329832227609,1.298380434775163
205.99560343544292,68.18215136809117,0.020406770847801597
275.9142467001073,85.00608845984304,-0.39931728338659583
8.18281549939849,431.04549678334115,0.7974453705646358
14.700902417840775,36.574778756291245,-0.5148297789700838
-13.593892534823212,-102.25879694669516,0.16064791559669334
178.64358553953156,-160.92262148191017,0.5026775604600717
30.112844224685258,178.3464312334071,-0.8101211610229955
-137.52086478381645,-44.99930003960372,0.9933242752987941
284.0024652950421,-267.9321812290527,-0.6901264588714235
-28.49181345358606,-69.13926071090656,-0.19010393829125122
21.886666587373664,-274.4174439667644,0.18785724024855044
112.1683382469606,-309.21273001440113,-0.354071344929388
-174.79728663181282,-14.135636479929762,-0.39980638840041777
121.53366305073001,-136.43430922703786,-0.19171815928291874
212.41243071382763,18.5020995704804,-0.09137528336309031
-212.97784754746743,-40.88724050888498,0.14464242057493512
-186.91932823448076,362.39784563879715,0.15731287959127394
335.7287776542597,86.07781289001561,-0.16166836537804524
-137.37493822636804,101.47352414779942,0.07200554052263383
47.287405705268355,267.2589019383278,0.4374018586189293
486.55954665363635,-175.22728087516143,-0.3286516242351963
413.3649576012322,-68.36530128136798,0.4668132869461516
-64.0123111225892,285.89561012846883,-0.3927376135774389
60.892434113655604,13.652669493221245,-0.5534403166824096
-258.5123459040469,-25.841263809769032,-0.8172519838275647
67.96594597275731,-167.53885932320154,0.42224015785334784
-118.28925616449007,-85.3962313176417,0.14799302802217376
300.8628394093328,-51.77227045614728,0.31320545429806984
45.89651810525076,-336.97134770270503,0.47574165007537306
-76.34172168203546,187.44817647301136,0.5286361071301702
-85.06838570920551,44.661341033457234,-0.13867031369838734
6.794130004793312,161.1834941137108,0.7662139077736669
-181.25177785174117,-44.18286233720029,0.17330792605346784
67.69579662135799,62.894234231052174,0.24896403950225718
-267.5921835213441,40.55014666601145,-0.4898973473873291
21.945591137700422,112.82636853508967,0.5526900915182936
245.27815692726276,45.62516112397385,-0.2291731185620614
-61.8003256129524,-292.0479202949101,-0.15054617111591384
207.63169818389815,-8.333067514646006,-0.29531364035753943
-54.873079890631374,-24.698164046434922,0.6460234575917468
-3.746672699862604,-22.75787550380665,0.2693735462193066
19.653841781334904,-372.21199042830176,-0.6225800830574642
706.1888860885437,239.7070618141842,0.5623531271330995
-111.2967973837765,106.22629110651212,0.026623716375693024
68.77269872820172,-51.08165925718349,0.45894706052408674
90.49478980680328,206.82205130821902,0.5413866353090112
-96.91200214241475,-381.1756262172161,0.3045751471927198
-184.28212728291757,-196.88974106156337,0.5839516747485187
-84.76941489535696,-133.37255525775177,0.25175966639181674
-253.0418619918139,-210.0424545208679,0.5449847530794618
16.320220949506982,201.4726784865879,0.15420180645624856
235.85332037384808,9.145447927594667,0.5467825110555764
156.676536966022,205.8906966614193,0.13742102604083584
23.984902118548515,-145.56608734589892,1.1729547692042543
78.96962075796769,-6.303033087658492,-0.3562200531039225
56.39015052571658,-317.07739266024373,0.7826655293934524
112.53220890770646,178.23114453924126,-0.22031367406692326
111.34230471040645,-140.4627649390908,-0.07344566547469689
86.7223092145632,-129.1743305584488,0.19265061113163312
-50.22699951784516,184.0282648000238,0.5024950950036289
554.0097627472559,-167.69881612955268,-0.3637929784567399
27.391465515974154,-6.5358490790281305,0.7644952261720006
83.75548212301584,314.2597296624627,-0.8905223269486429
-39.37474840167994,-141.5019742603886,0.7532847829776923
73.24934601559058,36.608320931282414,0.2262326895925103
-89.08405825312337,-341.4230707063072,-0.6367732123333696
-138.33599721934058,123.27953644199722,0.25058165914604014
-19.73344545692749,108.65703939726545,-0.009048025294668194
172.07831205026,254.90847360382233,-0.643676337357689
-257.8657789968695,-116.43182651711805,-0.35021429021292033
-28.052516468846704,-229.61758195170515,-0.5954896985971079
58.1441538159534,119.82484274811387,0.07408086824377352
351.33525104388406,258.6039489238645,0.06987316479924838
-143.1786255024528,47.00985289886667,-0.09045183169040277
-9.962172270315921,189.04890903932218,-0.1522312302761074
-82.12016428410752,449.5740868251878,-1.0664395583491815
-149.88028918214394,-174.97613969583605,-0.024389598548051006
240.15852898996593,170.2896412210025,0.34546908659502606
87.72381889697812,80.01366387907363,0.1365892834794114
-111.05800040228257,-46.68892265267506,0.3356638079920511
64.85233290731067,-344.8480607578908,-0.42397851395314207
160.13809189468614,-278.89264785221087,-0.4668565343507037
-22.756763229481916,-157.5308422805642,0.23618461299206892
276.2372012563488,49.331815998467285,0.5635515758496887
169.87672295200454,-249.91424032064967,1.3678130620910014
71.91942860388096,-408.16291792167414,1.327283697273728
43.14756217478917,-81.99664767574707,-0.5510820065706035
-128.8517875797146,-201.39496717401659,0.5714961033956204
181.1311466533788,-349.89026559064615,0.3088432946512735
36.59909372814236,-93.29609978297664,0.294891565286084
-174.18729522526445,-198.16533372895177,0.8651040051025616
-162.63202183893674,-148.89524769766422,0.0695982155365778
401.13113082822906,-254.8548188405201,0.19330841009604263
-14.662659336963003,40.348776622998784,0.8711438394457587
246.39375154779034,155.7521424445495,-0.10951813355128198
-180.49918553249486,212.03989352817558,-0.11176229360781126
-329.10297931114275,-110.21500153158308,0.47530855016377993
-328.933492050905,-191.2803296225135,0.7400120921565878
-144.4097265819681,-139.63799055150247,0.06950921549192918
-114.84931262698255,194.04688255465317,-0.6653028729885724
-339.31650309783504,252.14390349107384,0.9637726144487277
98.25790453789219,-148.8963097406388,0.6382715812400787
128.06369062187684,-326.9379478423443,0.33300377359115435
-414.9186663189626,-235.35992153615578,0.05005126406544105
159.83940982178,-32.04904493312616,0.36948105981587204
-116.26257627061965,-41.81267295425358,0.0905227174460081
193.28612735566173,-60.43979485152731,-0.5584841428363598
39.79788371421855,16.325651457954343,-0.7424042160324309
-136.48440515359442,341.10952302872255,0.168967123382522
103.42845943355276,-23.615300899037482,0.700534464386319
125.88373706035911,-94.15784335980916,0.260061276161275
-206.9587091659252,199.15373813386756,-0.3955937676313825
163.99873790254716,-78.79903671562114,-0.30878415187198655
-154.03299380341812,2.3895357178806984,0.3861089770166997
-144.03197213299464,303.7128279928956,0.1531922169852192
12.316942464877139,-172.77056526534992,0.8614677889095108
331.0446158298748,127.14292124436824,-0.14608551258366292
-157.28235299013897,-131.20353789084405,0.7070428910651532
-169.49638167137127,-206.85080138819168,0.191964743659774
265.6545935495572,-205.37277162037415,-0.45274483190918985
73.5996949340893,-175.34829121383976,0.37458967498613494
-104.57228842674486,73.05115003367759,1.149232643922153
-289.9796945979434,-270.7054904590292,0.622469502235235
240.22173212710962,351.85898352178276,-0.03192724587671958
-240.61396449608935,-44.39872888597018,1.466954237533413
-159.94603015518197,42.586036259525436,-0.39541952572114486
-75.81336376611485,248.68570518208207,0.26090152477985024
-40.88705266910308,-111.7638513928489,0.6239080743311365
-277.00030405561466,69.20640595560211,1.374779868074994
-186.1128154729224,317.4564096882046,-0.0724743089837061
71.66633562044471,-42.03949126949905,0.8601499113710274
-166.85115268425503,-135.85416270702694,0.286088637910484
-283.0745049917343,102.2733012034396,0.3182892453833317
33.76398335325487,153.19158993551326,0.5263364124878888
-172.2028743073581,-158.31967665493175,0.5119097455614923
70.17747546572774,169.226497297838,-0.8979046481598802
-355.3886801223869,-194.11685855919055,1.0941814865412582
-14.046943419985222,22.783838303522142,1.3330232128739865
218.3445100759747,26.950908157945776,0.856200314349792
-259.2880655496725,20.95281826851095,0.978830850045596
-133.710339480744,224.8852331117026,0.37709996985616384
5.419609416628672,169.25322068803575,0.1720945825545693
158.14519887462487,-241.02621215026852,-0.09076078495186934
439.5415363223483,-128.46493614373736,0.05705870126252685
-47.03323830223087,-571.5845425776906,0.5956104876360981
-368.53020471306206,54.314988065493274,0.5121486353705926
-419.19518305493426,-22.966447529343828,0.08482400113615408
10.518885391449423,-31.97527804807338,0.08743750355043874
146.60253219122586,-75.02636576011186,-0.7900810635457056
-56.369452578304326,248.05967782290477,0.8513738980641194
-26.4332549629944,310.75322762189626,-0.8081275078420296
40.204406674192754,-23.84636589862733,1.0568834556562319
-1.4950600903769784,-202.68623552101008,-1.3077841664012864
-262.1163118961368,-76.2575157715874,0.5120113048935138
-45.63558264357621,-142.82894942530075,-0.7622256468584905
67.80212618594254,-42.907032453925154,0.9564527811669505
138.22289126503483,211.77459897481663,0.2264730063922778
-110.12409084241379,161.0899649785092,-0.09951474213519595
-159.22056698124177,4.113213882777979,-0.026798096980544778
-170.21253095156555,-214.11608917004492,0.23282547026922956
102.71240345582152,-160.2496366042959,0.3888574407885226
256.3340297378002,-267.7190374609378,0.7812283239629874
430.54177737375585,-175.9752300394143,-0.0503331477380094
28.741502523119323,-152.36786403318126,-0.03354765147252595
-96.57756821355534,70.07051252334949,0.6317070211442286
-105.38872658360225,-44.43332301576095,0.039039115067001084
-347.4770589249368,-41.34134545691116,0.593340790621731
-14.297945073620047,91.2861589181436,0.8451389407329826
-65.60780506219183,111.66630909034352,-0.20882676784743787
-112.91645360388965,2.3160869159538158,0.2021835489881087
-70.48184504245295,67.25121614937689,0.7604340593363785
-364.14490869073745,-459.8689561168764,0.14856697284446194
96.11223952998095,5.756197953850118,0.5489955993768504
20.736384707314222,-122.69786847926274,0.05207560180476828
-197.81735484781197,-23.570785920966838,0.30592823243316586
162.19307619036906,-160.83791606840094,1.1119686200797754
460.58976480989776,-510.1386370085706,0.2938698675690963
83.28926555379603,-104.09265605247296,-0.09982750275063457
-326.6433523421774,-21.224477597570324,0.5108693515443603
235.56578966701193,62.37566313799022,0.2845190212013887
-333.42516083502363,62.74422586378381,-0.1936983317182211
29.01001349281278,30.166689306499215,-0.7669160255280256
38.598803800884355,195.4669659643901,0.3547258952929446
190.3249898823731,-262.09487446632596,-0.252993449525727
35.64644108556426,-226.41573770211076,0.973537501350527
-90.87119009236831,-130.66940228733313,-0.4362003902475872
125.8493455262097,233.5605667704634,0.223740784603928
-87.9809676039666,171.290908032837,-0.3031893146375781
41.93185413148268,-226.57048663162507,-0.048998731952225066
555.479827290127,-177.9812579969126,-0.3539634423914562
-54.44849171122061,127.47233822283329,0.9229196015450951
-161.50777887899795,25.69511834922836,0.28791212228847407
-3.8132310800616978,-393.5747100029707,-0.07921073476945845
12.708071264969778,195.2142076027333,-0.06917800096777366
-28.266337616510373,-220.86314058560367,0.15644710019945754
-131.32640622039267,353.9936491375154,0.20355483140097858
-57.28877368516122,184.85301886254138,0.20703179088345808
173.12776446442,-208.69474426586515,0.8636997917060227
97.97774516352877,65.90313166410373,-0.15042894897382403
-8.842427861920884,73.29038520174865,-0.9343401504139706
-99.07989498585509,302.2426934514504,0.08243812277160799
-217.90725458979963,-81.29036366613018,-0.08555242482436892
-310.38196884372616,228.2730786727513,-0.008410907947020096
-20.631712678178904,-249.33608189906403,-0.5204391223370577
335.86042807977867,403.0308793731665,0.471342681603156
26.21369924042545,-30.658139244042538,-0.31634847035482244
-244.60141133280655,183.58491803028662,-0.045067067144050815
4.827922121891402,162.09628212959785,0.7310182377582441
242.83814949194698,43.255893891315175,1.0530982838690017
275.1157802822321,-214.7983722449866,0.7984772806265823
20.83474789467788,29.23649964825007,0.8827174081079936
-12.23080181422069,369.5930549454582,-0.5371085302391629
-214.9946064842957,-74.19417953445183,0.186764419943613
85.30846339390108,471.3030346373916,0.341888602967265
-83.59562733679782,-46.42069285739791,-0.31417730396186033
52.79101125867792,-154.7963306381315,0.1577323711166782
36.41014983249498,-358.1576422486343,1.1201191654380611
-211.5201942117788,-250.86415517018003,-0.0998143658365031
-101.48955707279448,137.3774630313175,-0.7927768150683805
-8.743567633660748,-39.91527875946165,-0.34100588813658034
121.40370308360804,63.43380785616285,-0.4269659850938416
227.41242672787206,-207.23566542755148,-0.020315860512329004
478.8449387157213,-30.50715934435467,0.34348815805806887
-59.458060246851886,180.19238541969088,0.7525984590605033
261.49670857206917,-59.62530192847718,0.013956787160004619
368.2185070430912,208.69392065086484,0.6197420744338016
-74.73950014195827,-238.42624215769158,0.29421779141155024
-107.20618846178944,84.60069270024653,-0.20483074790760863
-40.23365084762581,111.3063752202733,-0.22350329801361202
205.5769169923462,-47.65449804732285,-0.1852730901754585
421.3192552534818,-11.488642896728678,-0.5498361606173972
81.0872126928419,108.69723418721395,-0.19912412370825666
-31.084442493933828,-30.067290511263835,0.01523175518819267
-433.29216002565636,-104.46220073580864,0.24657763814086014
211.87677437930884,-208.94764622189138,0.9872878873603845
82.045422816996,222.18095655263693,0.3493214899726958
192.07141073206736,-303.802603507096,0.16893155631853277
-27.727877823397357,-347.05426593163895,0.3479774573771627
-82.39402984901474,122.66582959667636,-1.215608599887905
252.42159991011937,78.85368680700687,0.10542713262136752
74.84480187068786,53.94235581560949,0.47210992733073737
-140.36898444971575,-170.3421257279943,-0.09414589338870949
142.90848377027325,117.06413278622804,-0.27457039028824426
79.58985114126371,51.359769038826656,0.9339138610171058
-304.24631876682275,-191.607459747884,0.006982935512206412
-411.3558986580851,201.94680944700218,0.3381368761344926
-155.39799677734686,98.2142318007996,-0.5145744605791145
597.5257104941572,199.85824193334238,-0.6166152368527875
104.94805522882199,-1.2132089837990812,0.03328280887350141
583.6138448271419,-58.91398544811219,-0.7942448823822428
262.7080822029213,-103.1349700108474,0.7207929294060231
254.79267738846838,-133.62577507342382,0.5090655935979769
-13.698502101342344,-323.2241691392987,0.5268159266964709
-352.884472431054,90.43766511631112,0.1398123062376168
-280.1610746028808,303.1917548842217,0.6445600133430205
-2.5054395711251907,17.602036447683485,0.0908723073126764
-205.84781190875626,224.44577710973434,-0.42199719866173774
-1.5447261922572362,308.819134031061,0.21894132813408645
269.7809726145226,115.87273328062695,-0.8010338934610259
-61.09758621787373,148.27990165018855,-0.3660367475493009
-37.18276885091211,211.15212783995796,-0.11595858912248058
225.5865360514472,290.2863009324038,0.5095580446948212
51.07074036292866,175.5302619826729,-0.04641093896668491
104.53678249822293,353.53527054738385,0.7507083487869672
-219.28431177316799,-81.5176215572247,-0.36346713735863717
-234.57952269009095,215.65612986259887,-0.29272521021346515
-121.70762706856064,-121.82756997182193,0.13862728621265563
-44.05829241328389,-157.84390351790506,0.4377869923837678
-285.7392575788391,-303.1718673898753,0.16615929100849158
133.19657316675503,-113.2658550248675,0.16959537301897815
-213.17133708468475,-85.51174655980712,0.24414326439134196
-90.0993295215907,150.11632955195972,-0.34316511044014214
195.17549666485917,-197.89881025274835,0.3534270264717375
-551.4787745845822,-50.643632714497,0.448286607780317
98.98724973301607,247.44804995450536,-0.4026362249316174
143.04894394942295,58.94409494463261,-0.1061392923430527
203.58070574624514,-200.82903648878778,0.437531402880202
41.18156604531967,-278.70738805084596,0.12546873610411455
381.81899248874396,-177.30597692075023,0.08322026340009657
-54.1812101741494,56.96161856070335,0.3938015621927949
5.142672111372786,-28.795042690411023,-0.1929325965702242
121.59518712305355,-240.96942709949866,0.3095222678649594
