62.70650060076729,200.36021456209969,0.4864107344203962
35.52235075103417,173.33020964588354,-0.8006757776484743
-378.5089779684588,21.633196296625794,0.19552150551063316
-56.597982936918314,57.688839111512934,0.09524893461171095
-255.51105895477048,-89.56515717936745,0.08492166533193202
-53.9733906153644,-30.611707338383514,0.6267043735637678
211.9383900421273,-147.86544556331074,0.6412158452596524
363.70676319982664,35.273748760824596,-0.391873323915992
-26.861903211219513,-11.619340823426615,0.6103815731205728
-279.26598902399536,129.69097086241905,0.568794792365807
-144.38133092174675,-99.1287187390543,0.7196463240438034
147.90290866328363,117.22090515259222,0.26222855802884987
-79.38694109691139,6.755446272603709,0.6909217984506023
-117.25976085877876,-113.83579908716,-0.4450778902261597
-249.30642621090954,-117.66557339741335,0.7865386126405114
11.778403388201133,-67.94511905343188,-0.09206193330541429
-135.00085110518665,443.91561496526697,-0.4920952129695891
-13.520289461571048,-181.45138368916943,-0.10227291661195442
243.3921449953058,329.8937917733918,1.0233825755428105
282.46975214730566,365.12276485748555,-0.00922651917507547
46.596700654849336,-151.06753744338357,0.7207939028839452
120.01964081197688,128.04721719669158,1.2079557017315217
64.32554784791085,44.302745484846774,0.5863870026716782
-95.09996919110482,30.92367642443026,0.31168699441210757
-201.47032237242962,-56.753977943199416,1.2331090508550404
281.80926669915254,239.64300714554986,0.7455585480539748
-135.08516070753987,53.65034899048132,-0.04457553214481827
9.416398877533954,-119.47232184223246,0.14857036357146533
93.32981046055302,-258.01426083071294,-0.3698712029306223
129.0262430701864,146.98816443927606,1.2222916163478468
20.662223736940923,138.76718126626346,0.6458841139301561
-278.01291787113513,-142.3853609599825,0.8002367515872402
-247.49135024086226,-19.84964650447508,0.5019195153358874
-14.504458471120435,35.45326577546891,0.42716791280514055
-241.59193533711263,-202.34955503287844,0.03883651724120632
-295.51043115488267,-84.10629359217296,-0.041893521694035735
261.51901388689424,-227.06524690783772,0.3591789508147951
-132.098559894733,217.5663213858118,0.9508473382470954
60.85698004413973,141.95258923231978,0.24843213898609845
200.0013738047664,-218.19548406510543,-0.021439269286637558
-281.04003607670984,-125.72921921125837,-0.16702391803880745
-101.6036263561169,130.82696456256383,0.31760413939581617
-11.024334377837008,222.10183664370757,0.4890755808065555
-93.87491621961588,-203.2875256220888,-0.2925184680316478
-142.29450131551818,371.32628060272157,0.36518186565172805
238.73989068054468,-112.20139432966256,0.1946044745881583
283.28285482781513,-92.55471666060203,0.2231337111758079
-172.40899438905947,78.58079706830212,-0.13538728857715737
-12.198792697267985,405.39227645598305,1.225034029709786
168.23507441233818,148.4074328379373,0.013293510032578976
-260.6916612377407,-72.02907421343053,-0.23501548494555963
55.858718790161845,240.1562180069162,-0.05395594537621495
175.79348204010293,121.67648968461087,0.2989658133899942
369.33249115151824,127.49083128953565,0.34086029251741645
92.3574536457331,-44.9468989112315,-0.11775513089528084
68.59755090096611,-26.078505974850618,0.1789402953322319
-8.970888692154807,343.2895042648269,0.05387168632359149
148.80625917851188,140.15100251243186,0.04784361232138509
-20.53013211595662,249.47688310740355,0.5901212708484103
-254.8681340298855,-29.044975760152813,0.0053183907732787805
149.2073790753519,-104.88507994556313,0.3834406521907251
-27.583069258664917,63.16400812185582,0.3016104158649292
34.39212419154569,-253.84875562574237,-0.07513885682501276
261.28331033394795,-38.78345530270242,0.03462355968611863
333.6592032841142,-125.89955974698077,0.1928094851318047
-391.8629972441248,422.10473176454065,1.5152303381501024
-233.62493771910442,-284.26939915668765,0.6707959419930021
-193.26226626963242,-72.23725998540667,-0.5854448174046807
346.60311813321664,-160.41455289311142,-0.302444211760789
156.78848803599206,-181.670425832532,-0.08690174045455457
10.056333068524365,72.76940427796295,-0.11457058552573773
-172.57133989825007,-2.443707469093413,0.683764530251968
-355.69408297143235,236.11116685724508,-0.6456634439136717
-313.0070347110907,392.8972848119868,-0.37357149338118917
-164.48626037275343,384.3935655624556,0.05659398068331867
79.41541497514764,-177.13987888884063,-0.10918598918137024
196.35121349630077,100.84962010375014,0.5932020475008217
-116.84130948904516,-101.5275291647399,-0.3576266725345994
61.16715300560903,111.75637080638113,0.6896620619775813
149.2870246049614,53.64350689740657,-0.14449985277941618
-142.20943457511254,-312.24965313385684,-0.6260735855060193
44.161362684794234,-337.67315105238,0.5924784949627961
-95.43768145820721,-273.73594084358615,0.7494751471024865
-210.8253896698102,-9.721728406321187,-0.014348637099942552
117.78446736569815,273.5247297882362,-0.4146957042897344
-77.70355704305257,-31.259817699268883,0.706634417081111
-246.96602165818297,-78.39040241823818,0.31544806787356866
-97.54898479387492,85.10796341121858,-0.829619350529293
-161.28825733338556,-153.13132079818052,0.02396360162776212
0.829856051856517,156.45955362704427,0.1988137342846879
115.05775824025315,8.140458063301354,0.6572840169413559
-72.17096550456937,-116.77926145516402,0.7158278378623666
195.29701981837547,-393.3906164485254,-0.030909823934956226
1.6700508386637742,235.2824872526833,0.16947816419248354
286.44310540434975,7.644527121479153,-0.8100258246986218
39.07145605775992,-232.65103911869937,-0.08425410585055643
-182.83283212421156,-16.0257251050463,-0.9876242228373933
85.65115453543488,-232.8035514190054,0.5976327224448672
-163.97261552076105,438.71320971275657,0.31723879062303717
50.79527746973178,252.44557346355742,0.43877471015907965
-108.63477996516795,-45.272689815652264,-0.07022453853472932
-23.535653350812836,-60.89404916457364,-0.4804931442805381
94.9040657828816,-39.62631334449689,0.042392689931333855
-108.37759592120612,-151.62403564776292,-0.14788547908181493
-365.237629437135,103.738763151088,-0.11350671737980195
-20.255130942734752,-127.43884023486277,0.6654706094164005
-233.39739809318493,-62.89360975126179,-0.010816491503799347
-378.7163988218632,356.79139357905507,0.9978492742579492
-119.06538285982784,142.63086810126225,0.18655190543587064
35.878102234581156,626.6459055624214,-0.3393436606348949
66.91694040722182,30.89415619213936,0.48600685726487003
85.4775389450962,37.573970014561006,0.5745737725860414
37.03626435420732,326.46047017161857,0.2431560815927809
-52.71578848266878,99.61045013324646,0.5207170148234722
226.89606863758232,81.70201575565783,-0.505149764275808
-127.36879617756951,115.5348087264821,-0.273825211168969
185.86092338928407,-11.633233978300913,-0.5150566017311589
334.7344806888699,-401.80506004375775,0.7767265618615871
332.9555841839049,-196.53332562386962,1.0399287565146635
-92.18801110641314,54.64129467974024,0.25036915910065116
-249.84561895220762,-103.22370521866691,-0.475189861877696
-223.42820550060924,64.82327654477825,0.9054430446707562
-104.73493860540215,-29.897493203520252,0.07053911589168588
83.61730506490551,-259.223383217543,0.16292348885133115
193.46972270276396,29.06188042596022,-0.3201536453685035
-64.18093643044493,1.7869988801245142,-0.4998536335965415
41.77464800668013,348.1741384250267,0.20627444304854803
386.7975406270878,-129.3612188779105,0.4305034139287741
351.1896188344805,17.047128980979732,0.49724605617872014
177.06233588617906,-293.2890392944986,-0.1696575447501263
210.81035503701054,-251.24638629789592,0.1939256184049092
30.723868785846975,38.50396670814209,0.28862629011104923
56.26472383831679,8.718234679091243,0.12795849052093694
-196.2349072769438,121.05657886716537,0.9542273112336321
126.34417185070122,-170.21426135835898,0.4858610220102172
-412.23633129141047,-127.21239429039014,-0.34272202580731886
50.44471270977069,17.045881072169013,0.846731170300087
-265.93833707196404,-172.2575906951593,0.15252386939915413
-315.60828588910715,109.9230550456254,0.34873840797241246
189.138497589127,44.72348902592256,-0.14701481930719423
35.75646265619163,-244.82550667851763,0.3991697819876153
118.99092901632615,-89.6047832518867,0.7647834193920227
369.26190625054653,-412.98838570867247,-0.05810204108251976
249.70912917440953,32.064324790208026,-0.07871677327629878
-46.505542888001216,387.11592716090405,0.026470459423586695
89.24775663629711,227.2277559848108,-0.39476297569664137
122.23001883427077,-491.32546273821515,-0.24867427360900335
-166.43118187015853,38.12571935356133,0.4364842204604365
207.25166595426612,257.34247237483754,0.12346441972200015
-187.324396898693,-151.05525893960498,0.7269458397725059
142.223654038611,333.7157386590161,-0.24030413186483962
110.5505765291295,-37.08072241936581,0.13249271720262407
-137.6379693606068,-143.705048811269,-0.509537800371064
-377.46980135184754,-113.15170068494591,0.39060964068460025
-79.3061281468522,110.52227090062661,1.0353329341394995
289.23320473340704,63.76916829395973,-0.0806801351938633
131.80696851403772,188.16579461272855,-1.032525354424204
232.49928083229756,210.17730716484806,0.7178438678865686
48.01342003285779,82.43459013411399,0.14866513985761914
65.23486885653298,-333.601157154619,0.7874280826691715
372.30873681069806,-309.0206827309909,1.531610142783673
81.58026476295942,132.75460264139753,0.23503219855107393
231.13432678421844,-62.35218223278004,0.079396788106095
73.79105090834742,-147.33158211077128,0.2803104500822831
210.62219645551755,2.478663227449985,-0.3619222360051229
-11.015958636873444,204.08008503796964,0.09467912356186038
154.9015747583537,-484.79276483164284,0.512176746022492
-230.580950837765,-26.87318683525129,0.5236497682744672
-64.42867074826935,-69.20615842778271,-0.18891166638470963
-12.22425897402251,252.28993214626877,0.13976824307655508
-276.971403731415,7.603077869755967,-0.22371322263054644
-22.114692760657547,-28.814658935634757,0.5756285837688945
-306.44790132886885,-371.8884707967008,0.1747819401819113
202.3024256897323,331.2699060349097,0.6264081336934493
-350.22515016889713,-14.72464895870008,-0.1293262178111904
140.09568969376218,-6.479144547188152,0.3036545120868227
455.2326591850436,-249.44707683846747,0.16391008072147273
-110.82743483840449,-27.671065187875293,-0.3663771182707643
-43.16094850570925,59.28047514143152,0.023649641175322617
-56.018613862526834,-26.983927022388563,-0.16381237711701302
-143.3284813811323,-67.77363384998176,0.6279216926997717
-31.71172986237546,74.90597596858134,0.9356437229058687
242.59375761460805,66.06289312074563,0.6428314720020596
4.561539970222234,-0.2995814980965111,0.15914843895338615
119.62061880826967,149.73115007013,-0.11000753040596939
285.7806217901562,230.86241438983186,-0.08720291495142435
-173.9413396058855,167.87241050480196,-0.6311563234383433
-75.65116652108307,-38.45358870728354,0.40442705234119536
-3.957868187484067,76.61398030923414,-0.03152075357196857
3.8786542982319814,-146.8366646788179,-0.526726943221292
-13.174929510568168,-156.75462855939315,-0.27235329580431644
-256.04973308593384,237.8384706697883,-0.2734556612910152
121.69038574145712,-104.9948707466798,-0.3103960765343338
104.32327923918594,-148.33300519068342,0.2981930741818233
-220.37108213105432,-143.76614527669327,0.2815854355218733
77.2746352534444,-174.6228960346264,0.7340443333099973
-219.40138859002732,-140.04603300986696,-0.008585084628121853
326.7798845875919,-19.84235103894435,-0.35321688624908326
-147.25928887462305,-469.0508173683794,-0.03987858420434165
62.5384284848346,-261.8441650083531,0.35002174351884663
-35.42218066626446,178.77694144442958,1.2664398923244127
-109.7687767359854,-110.62018803681181,0.28375386343013476
-215.9592613362279,227.5640719939003,0.23019612013303015
-254.425505351756,81.87257539942865,-0.8725749227673099
-134.61057456574167,127.98990279113083,-0.1493251525188658
-188.1417846821527,-294.4661174918255,-0.06713364564451074
-157.82930571620318,314.2918187565147,-0.2857662910509051
223.28689322877887,-24.243830617341942,-0.14185721287229136
-345.61242301509634,24.502172155715368,0.15406112256474644
-132.6288003919623,-55.77913169003461,0.46544330506601894
-87.97866223007135,160.27988522791517,0.058649025310277964
67.11761573040307,157.69399391370195,0.5526620789549803
188.6517970439209,-136.44578627344106,-0.452735071402185
95.51421336472639,-185.56657111653482,0.0661958919984365
-184.21136806410937,-35.48435893075251,-0.36200893853921484
-85.84115988897518,-25.440804362092734,1.5492812916742251
-211.2691563591996,77.5659721512994,-0.7176263464422425
172.41089454723667,-225.35957753466195,-0.0597181653037277
-563.6408281762018,-36.58693443687173,-0.06306737853596966
-157.00825055749868,101.96934838569618,0.9565781867214951
-104.0777703571785,-182.99020083654787,-0.0650008869753319
-119.35739001438088,-16.621254600871815,0.029702675463114808
230.67627206695985,-456.324871130994,0.4229095784238236
-141.82636774007267,186.11059006641298,0.7970295695764074
295.47775330154474,149.32901181959213,-0.5571164452308375
221.36548919772721,-169.89028003948133,1.2619288795679693
-334.905760102719,-130.47349504271787,-0.023203124138542475
82.2510158561585,-315.0121073143395,-0.0758773782189629
-258.32591345206504,104.69671170077113,0.3839448974066837
87.54219644915007,125.23348940401429,0.15162184838233406
51.349645441635815,-174.2060407368104,0.4094686833501433
217.97354652977668,284.47302584698735,0.05388743360967577
-166.10979043134955,-55.6980216722939,0.4985629070296656
294.67998533477703,127.90435717299799,0.43496290723288034
-218.78146557590537,53.74667382478036,0.9289173939506705
-1.6563946441833646,111.26747354345837,-0.9987542952342614
65.19702462140332,-60.158355456761434,-0.407417953277097
-217.21457167497707,-10.030592687014753,0.6781001066538559
20.027741539021598,-263.328198582782,0.1966556857281437
-191.6189572025308,32.6474846046204,0.9166298774475157
65.90481715600363,291.8380497196103,0.9860584630693485
43.91332604264297,65.9547741056352,0.9945051199405219
-333.64624469339213,-238.30794784676303,0.31164240395323173
-88.71278705319938,-422.99260587207937,0.3189506064999178
453.10452328083295,190.55910105641053,1.0296841191925201
-258.09040091922884,142.41595945207845,0.730657167291727
-38.05335085562764,358.06258960095306,-0.08938379059696605
-87.96688391466972,70.71949116947167,0.8700781415724854
180.0201916493993,222.84799810391686,0.66053824502631
-195.23116539581218,-483.47834267882763,0.32985172984162736
196.1321409565501,34.204010736241045,0.5114956297722664
17.077895164280573,110.4829480825313,-0.4606910977739816
161.45944711600617,245.95020437851022,-0.08393973155770812
173.22024438272692,22.16088011176288,0.17942992413888387
-173.92958846076152,-48.33853506805293,0.5953477844482222
346.42074453558195,347.89106963218217,0.11838571815578976
364.38730750419495,-155.75032433980635,0.3754550002751389
43.25693095167943,33.719745208130625,-0.37107712342659144
142.67655066902535,-225.90597644336822,-0.6614408169879851
404.562784654352,136.8739285121956,0.8460399999492516
178.037152081701,-177.53023454010548,-0.09598695566857285
178.08371130763655,68.48427999397018,0.126891137721181
-176.34017860002396,-5.185210397494783,0.5446069588347703
-283.8221902917908,239.217852422955,-0.10884096611214866
23.94860374447103,-238.49705558489856,-0.38005867962918977
-160.38136961166788,254.58922435070258,0.23007950466483648
-99.2618158207677,343.77526617678814,0.6423150360346506
-268.5459019928253,139.96255141741196,0.07629028358538974
101.34392209605616,-143.2728049946953,-0.39595223426368115
40.33624166843212,-164.52426260758102,0.06159243169161571
210.6102562582814,26.88874210440237,-0.008584097215798753
486.4699362620254,39.38669920878787,0.7716277985056201
173.36780181679111,-171.03064050318469,0.9243086826157116
-60.12493270254051,184.9759823486012,0.2542517759536903
-234.50519485289288,-93.84176488465714,0.32021390022085394
162.7333237113015,-69.77169173052191,0.4564787081235243
-202.0992292647752,8.258773455206631,-0.5486254004300586
-237.34670701434135,-57.63210708887433,0.11752732947257485
146.3909658840325,-239.44866496589884,-0.11959889474627972
-6.9817103965831295,-160.50378711078068,-0.017211213607425224
75.46946006130206,333.4542977534273,-0.025134614104256575
89.98376435093547,472.825635110916,0.271190400164783
353.0116210371625,-176.2465962235825,-1.1013833325976095
-180.84576664912032,-222.2065120868264,-0.13575162697955506
-137.28601913519918,364.2437312504465,-0.4281063456667454
-142.7091811527647,-38.578800989202534,0.8815107672157625
145.95425789421648,-519.6157764696752,0.1371266235341838
-367.3421809764923,24.95360079881334,0.5747081472926132
-322.9951612508522,147.26892943383055,-0.6581992870033444
-166.3060086660728,19.66982228070927,0.5143998007942143
-20.251153019824418,-239.69661944903234,-0.6305105623738692
-163.0324974619689,34.09552723142491,0.17748549595784252
200.90516445926454,119.75107212972995,0.31876290304947646
23.264784030737975,-156.7262400472839,0.04253547953075773
-238.15903727991414,-583.4183495345985,1.1635272800413192
-324.5904360771284,-40.54358510684846,0.017770919583453726
87.85661779341724,310.38723362661364,-0.1982364230863129
40.00389622205163,182.87424055121537,0.02717255876721611
-99.09025663546217,-473.9682517646438,-0.7752780334163991
-204.68861953753225,-24.647054467305384,0.951664679511933
180.62964748779285,-365.8779251290588,0.17206128327032807
-82.12819709625833,-198.39697227722382,-0.12756941966331764
62.11119741886299,160.81470726572638,0.24660422504646634
-242.191500217069,-506.01738073971677,0.5239341241476094
-263.31428218217764,161.46380513277424,-0.5604125655225052
140.97182429263185,-41.47266322975226,0.8606175768547908
10.976246088487132,248.06449847494076,-0.18344220947991047
-140.41093348932344,27.599740580077096,0.19947691826863106
351.8091549965737,1.1109135524073037,-0.30033381903007056
-61.82864165718187,-313.8288535102567,-0.052960078698547464
-166.47085490261898,-84.28277485228863,0.9319481892540948
-40.334606734192256,-218.99267403124702,0.0025546444156030468
-45.90139652640344,175.3920974231429,-0.7608091497758744
135.69683808961642,276.8104420583733,0.21755820552469082
-97.55218310041059,27.332410321377555,0.24593653528507547
62.821963011642104,-38.91024978725872,-0.07051867675357104
-252.27895606506934,-132.69410547803597,0.4789652123330789
-61.42111794494745,139.9033449771596,-0.03527593428195336
65.65422087125388,146.21421115904897,-0.5293671092933803
185.438875104385,479.5244973768593,0.14132586200475178
299.9670099800325,105.76130924714317,0.8448929255063846
170.9373003596768,-58.29009958161113,0.09247341716779951
270.0350469181113,171.2924673594052,0.6198759937135501
-246.39712907394747,13.542906549001762,-0.11178522542718966
-230.792037647422,-216.16458977501173,1.0239756288161128
227.41881794132138,127.62928601082102,0.623093063340642
147.2425567007029,181.76832940672548,0.2973829059870862
294.4243450440927,-92.8362796169294,0.8089275952200627
219.87569978362677,-23.469451628688304,0.8881775342137368
322.731656103304,38.34976169628598,-0.12745457629108226
-24.253329072085887,132.15318015904452,0.5962737724244618
186.66890351044654,-29.497931067636753,-0.42430441961289705
285.94047653110886,19.65174238612991,0.7702999893724085
-271.9845338040917,-126.67821483423509,1.0492743573711687
-73.72989252316184,374.14786346657183,-0.9507524764245896
-165.08853672362022,1.3476735160230064,0.5535409071696731
189.8567498236181,-48.56914341129805,-0.3923366740903657
-64.91318149504734,-220.1180777888071,-0.3539783772944109
-187.52719044301338,80.46175584019846,0.07718129176609341
58.497357055801444,345.58435567675724,0.0745074078949722
249.25259070802443,-13.722956900952166,-0.35895853576464926
-163.13872243329192,-51.52298735639158,0.03774682378214739
-47.04852395535942,55.61620271655151,-0.08066710852469178
-141.5243416041757,-202.19384721154233,0.5392336538906727
-460.85437202086376,-345.9000686790258,0.32562929293196585
268.62694253328254,0.03652062997680403,0.15720815683649472
-313.11850516953376,32.592160408249505,0.004708267417127571
82.71307166076447,235.61545889024003,0.01805634639841483
42.21825571742065,123.07911677178991,0.7724835126304128
76.80272770970285,183.41735063811518,0.5138124475184254
-13.91155291652095,138.80423447986772,-1.0450315273150168
354.8347509790446,-403.8969497827635,0.41963149900870356
-11.953864276206385,145.65708174797118,0.3304628688317943
248.17664549115204,-193.65881777560458,0.22962788290411013
-5.517848098647737,-190.49864082845906,0.4844469715930174
27.226742325211355,12.546945392392336,-0.8038597777575456
259.4856958833075,-20.691525232384446,0.5856459338881947
-26.61645215651516,341.32856596181654,0.9693678325615451
354.1237407041335,273.93541494253805,0.1091030950043346
-135.6000515775174,264.7659807738917,0.6493283708802953
-362.21162266401024,211.8136753782026,-0.12398906293780243
167.64817667553555,162.59824733601235,0.8928354367520746
-5.726549752861781,83.52966544042879,0.08873418563436347
-319.1642903349718,-199.6941813132194,0.273303813757946
-261.81948186485096,-10.036653856967327,-0.14349713386741897
223.78102306011053,106.70419640389706,0.4162276978766257
-236.33260354696412,-149.4107333244503,-0.5408767299000712
-99.48169575376917,-45.432077865575344,0.9695955552599427
-122.44219071320053,-14.648464904071764,-0.03787329906453327
-72.25537185641684,181.03543671450205,0.07987128292671128
-59.93200420549415,96.6333131460688,0.5220895558414742
159.66178219609435,4.589715871557062,0.2944598428507549
122.9574049671448,90.37982045992635,1.310031408320644
223.87050551588635,-92.34916579315156,0.12189237709265109
23.88986385159219,-372.62747200381864,0.09272131389043733
81.12233822481771,109.78605337077741,-0.3773032276586424
280.33529222628675,169.06584698154538,-0.07921475489471491
98.19724880640766,130.1907969089501,-0.08430629581868276
465.983415105383,100.2438215092756,0.4792950236720044
156.29766707282957,21.11926893006791,0.9214147820293535
49.894856806951196,-125.28187626909346,0.48779410200910994
-119.29385395881549,-432.2893437366547,-0.3425462166695756
-96.74671989604474,238.7114995258707,0.1726849896477386
-46.908599865625895,-52.95412237984625,1.2153171620372671
-16.622357876088163,-74.15386494866667,0.3135483407900991
29.506461006072065,164.92759402748806,0.1622362113008149
5.1585374581367995,242.40042643155655,0.8609006028225676
-186.0181179266982,-37.37952984214875,0.9142653396912446
124.33545125312453,155.08731108629192,0.5557854785027999
202.92457161037385,46.12121316581155,0.0975273295143488
239.4728653414855,14.017922293625498,-0.5485879945697274
-16.09491039933883,-1.509560096192833,0.9381784617327484
287.57258547317815,53.45580540042639,-0.059812872516237514
66.04663530255152,272.80508962555376,0.13377162888494826
-238.79812257433835,61.72560314812042,0.29432748802754344
228.14921076487215,349.28135354883005,0.36499297663160507
-132.8066493168184,-383.5373243885685,0.5290421767371078
-272.9863751567083,-309.3442709535818,0.012838987047353506
-373.8337881350694,129.97907934646386,0.7893354279251912
304.6763917196552,-81.50852617237526,1.2616778793703618
302.5940112494956,-67.71615658403843,0.2972463123439169
35.054185874742586,-279.97555705904676,0.11302020606473578
-143.74903954041284,-168.0045984830057,0.5966986788487978
-9.23597787493038,-114.76285615425108,0.00519047137522094
293.7078416004228,254.51466276564693,0.4293761421292196
82.40950414091668,107.8541167293906,0.07797717075382292
217.3194991196767,102.24370935063138,0.15792467200650862
-233.25099163758094,-225.04272807981215,0.16222105572015894
328.24429405255563,-410.35147660659084,0.24674744835955578
22.48031703868931,222.32720459647686,-1.0172391530100433
120.99472492670998,-515.0801743005802,0.5793019652367842
194.91885767121752,-19.518774262123635,0.02207999022224677
85.39515076256929,105.48383421559879,-0.4949240631365321
-279.84854080754064,-50.71345300843563,0.06947698953766437
-157.4127808979398,7.361525041869096,-0.34082730947797063
-389.00704040617603,232.36969059380118,-0.09089112162850016
336.8065659111668,165.98960603124812,-0.2160322510802471
88.24416828223336,-140.2367608942637,-0.31069175923221354
-343.97756903307874,-125.19984917811885,0.25890787850698893
-17.47422190761867,-309.29804269654915,0.4131434785149909
-53.151712071236304,-258.43179708844895,0.9641617150293527
-297.10044998982943,-274.7061464010817,0.3967682479444713
-411.43196100862065,194.166782170865,0.47975647174879854
-408.5094325027594,2.0307215671372223,0.4910173441873269
-438.5643134954388,-195.74318482367013,0.21607365650419658
4.413142055841479,-372.9078092658632,1.0134465510854545
-147.09153242582101,163.56613803004873,1.0678229833740462
-165.66703531294738,376.4839532261998,0.6101286146306453
290.2749415599471,74.64254333794584,0.2502897726445623
-372.52611475330355,376.57920339535633,0.45612035814744567
161.6919896870526,-409.405239557615,0.6001679688709649
-133.80581286472795,-489.92094954954473,0.29236346119997225
422.84420236163413,334.8499072877037,-0.4888927375821172
-541.8352497857393,706.8582489225223,0.7182409832205248
34.469150575798466,78.49785993393255,-0.4698821608731972
180.22103740587013,-53.90106006573485,-0.04828730311070356
-170.4641762051504,96.5295064636406,-0.5587576522750288
-67.91751717217612,332.42964247398197,0.6057333193621295
41.64532088605046,-197.11661322654507,0.9345346452726804
309.6930824808754,-408.10124823470994,0.18979432318365214
-73.6689573825186,-94.90371224653045,0.06900623995912247
-223.50762872059954,71.50768766460456,-0.2631530729440162
-367.8396845349381,121.91856670213443,-0.13149969957566948
-102.96161287159924,-44.96408573204955,0.4971070822532608
-306.4360651080364,113.01283014283425,-0.15022834062475904
-253.19586423782562,28.70688643231351,-0.22634917821098932
206.32121123883763,273.0594161136196,-0.1842185653143133
0.307986632307752,15.989586941035542,0.9884544992111863
48.36567424823922,203.22100579878767,0.6570239995797287
-26.60888094685002,35.154975943306795,0.7258339590134655
204.45195024028732,-121.82220462860936,0.7048555297938881
-190.2601004310617,136.31129633609157,-0.7381256327306569
-45.91277817154688,26.698400899811503,0.5022427566979979
612.7332724055531,242.47713701452537,-0.03718755922394637
-187.6463668899945,219.42571582096474,-0.42524300924913955
-533.5702298626974,-258.6085035241059,0.5204276235593144
-182.6964400385459,52.56558540784692,0.8016124936147
-302.4393588769371,-122.20381234447859,-0.04083337067975157
67.39705798537497,113.3430390732467,0.43514601358453564
-1.3123919433857318,-70.81743718594198,0.3770668796838903
28.86384334532969,123.1822196936997,-0.43363914844443835
41.04268387937447,-197.76032567857825,0.11032046624929087
-457.8141547567597,105.13772809790771,0.7966737355322691
-250.5531803871343,301.62141473672335,-0.2660489818344891
218.23163424884373,120.71314915706954,-0.2861819258919966
158.79734656148358,-106.60975614849124,0.1893779490733374
-284.3780929252738,-231.67808862337992,0.5150806936071821
-81.67213455793429,-37.519366642890006,0.25690334109620006
90.1201497155037,189.78149686848636,0.9928966851371628
30.714718664135603,-180.90443557914466,0.8605210818252944
-53.90654011116832,-223.1732906111252,0.04110781888228582
65.19964761446636,339.201220588078,0.21051443174234805
558.6101860153184,-97.94319204426755,-0.27774780240083957
-231.85801195052642,-276.00497135100863,-0.517361213174939
181.6293812660286,144.71913096683681,-0.09520761014251194
563.7488456755491,85.72305275307582,-0.4623289002155015
201.7624592333601,220.94910007725525,0.8317563802753232
155.29114015800945,175.2123217447502,0.23057768088845257
-115.2781838493181,-110.74118990047958,0.11018652141168175
21.36722240393305,34.868574535750135,0.9719257344114507
-25.77425872936284,-149.23538508477526,0.22690634960907405
-287.15813198427963,186.25405974074835,0.10002143418547753
-129.6760946463918,233.08697146997517,0.2436012652083951
-85.76909884269162,92.88213485411599,0.1569036743573703
-62.38026555142704,149.42284836066,0.2549109379231293
-79.61158287930597,-191.29036230305172,0.48203693574638357
147.377640248568,-115.33812390136444,0.752867359399598
126.66086904855085,-357.3527891099724,0.5242958974506668
2.9334592842959593,177.76392313579305,0.5580347944765263
-124.13752371168619,-87.6927806209665,0.47715086256094447
7.141808664873488,-199.1763039808314,0.0007190127763212484
-198.74272232315818,24.246899371812578,0.04151187388573463
-395.29349923824054,69.45599805362426,0.2464892706035462
-307.7132942683445,166.83781856027625,0.4787619187885582
-463.63723334888334,171.05946340200447,1.1349673157823446
128.9801987184564,-18.68351824727144,0.5966381349423043
-57.93458385485809,-254.23717057814594,0.1510639483808046
-223.25927805056244,-161.9192689786988,0.43754758653028036
-118.88839768557315,102.45032823809417,0.9423438588761153
-246.41179932531446,131.0519000280297,0.17006673241630543
40.89266524227363,280.3210398680669,1.0121515404650752
-110.21117786841106,170.03319206765565,-0.09330319576359847
19.089006245593364,277.9574539928671,0.3548937151377449
19.410952995827333,116.9985711968079,-0.12442894066198329
230.24646526569242,218.3309169341055,0.0025102901122565635
231.26819630398677,398.6143705674776,0.09724176491191562
-4.494821533355084,-70.09760899891451,-0.30677076857607205
-170.67242611190028,292.0070223883566,0.6972086829103998
161.20544245133982,250.4438143474351,0.3431557027001292
-71.96359930980148,-50.28180489192995,0.4278241934013113
-89.2020074179208,-62.19965430836931,-1.0369295158747505
-105.32478341086117,183.1329367301688,0.002517870025187746
-168.63222575985262,555.6216756371729,-0.2825194651597077
153.98330819544776,75.91581578572695,0.6105943690825091
332.7495303734528,180.16790441266818,0.3624349281440793
260.56086473150367,348.1455086279418,-0.09137504004016966
-32.53930134148435,36.615356694322685,0.43126843218567423
175.75444926423057,-13.667503101134152,0.3496294165998981
-122.77943336529927,31.934980743638704,-0.10162444869972792
86.82602150336477,358.5915115146102,-0.11663347384643513
-239.86188723136368,169.08890346404084,0.6823449356343468
58.41548318156412,-143.93576197281325,-1.0790473500993834
210.15788252057348,80.82467584357875,0.1476492036047645
167.47423420822025,15.643289499957952,-0.3827263183377319
263.3579541426441,43.88008269086247,1.3180602170040432
156.5955717324111,54.02464814192517,-0.04664613935767989
-318.85503474367954,-236.8705779133801,0.5662773962602554
58.22370085184685,25.996154311350463,0.01602034201211161
-93.8814756817687,27.92644504362815,0.16247171165661403
8.062472960797189,104.48381736061528,0.029652872733951563
-149.44214008688107,-87.33768032664952,0.5647694618779417
177.6113881584373,76.13741541993812,0.9475080787910153
-392.12806390510184,33.632944528650015,-0.46476374471935616
341.69824293127954,-174.16986967923341,-0.25643855879697797
601.6212855941,128.510665905065,-0.02085242881649671
-243.27831924722912,253.08579397095073,-0.24696723092489775
252.09681527384294,443.6598694453915,0.5388781758935293
266.22370002732947,-16.063810165305963,1.2696483600133694
313.86968931463934,-143.99417562493525,-0.008418005126395622
56.79482619737581,75.4630606744346,-0.12229923412522509
95.27187858320777,-7.48669596219175,0.5964057367904376
-189.6591614157562,188.13167605700335,0.5259924408885207
155.45719932199034,-213.10615052126334,-0.019632571415383993
73.35396101535335,14.538306060650799,0.8020137509579521
50.69345617147511,-101.84408359177138,-0.28840889642005085
-200.59132332592554,245.0749816996054,0.48899428133793654
-154.85493712330515,-361.0711926372074,-0.652007901342244
33.20631788730593,155.9926884964855,0.5174676680873387
-185.0606409924253,346.2521029206011,1.1359898558226806
-220.08325145906943,58.58242451875479,-0.03509878466130106
173.392681767326,397.2206463258103,-0.5158046047359475
-36.55774787323309,-183.6868330012681,-0.46181084788619536
-37.6054693979745,-65.149769716562,-0.027325419407060153
111.30763172385781,-260.72649865056337,-0.786284165835712
-201.4374842565537,49.402921426304076,-0.25457175053854614
-154.5226581106625,-330.3291715132338,0.4328079011822998
88.93940248314564,57.755187454568315,0.17828698831757867
-9.251209877844301,-205.54265088259723,-0.3663166752370141
-41.165199849836235,-615.4394258594715,-0.652012747182201
-20.827806382036727,-188.21508855430432,-0.4703126917101725
15.661746156107192,-387.96373858767566,0.11444813637316613
181.5864164158669,-141.02623739492788,-0.37013529958423336
-292.3012074704849,180.6211843726127,0.2661760419499987
70.67971302261394,-43.3728083247405,-0.4597948702493209
-250.77477299918365,-369.59230509936754,-0.017168345697650828
-364.1620697386056,52.085631272274924,-0.6092420341605902
-75.56877195342612,-228.3769011225082,0.5866819137382617
-182.26058751382308,290.07865354836946,0.30319904317730706
-79.09693640148639,-39.957599775660505,-0.038688480668755326
-175.0524546290382,57.58236091650678,0.82672178834412
274.6488268533873,17.69186834983415,0.8565935133282465
-34.941475737057125,-52.575157664012586,0.3329538903460009
224.60288374332916,-63.47276781209784,0.552916483147905
-62.79957107089423,272.13990046877893,-0.35255672686032863
-173.55168552631412,-6.557386249363457,0.42018687339066507
-218.7437736735496,-86.87797453161411,-0.6910002364911529
-296.56807151779276,-378.2680342329026,-0.30632490424720954
217.88663095030554,-76.24482165960927,0.7199818678605696
238.88785757887737,194.97498837903052,0.49989915035242094
40.4261202289892,-42.84531115672775,0.4983415995441788
301.22213291789103,424.6109294540975,-0.3865259164841593
-129.67595172537747,356.79132250636815,0.46591986448673184
79.81418705945964,297.7577600605887,0.5046030443813518
-55.56331416471123,-193.11013309248187,-0.4996404007924214
33.66319305452558,-28.75154702684066,-0.3427431056043028
-383.54220167258546,-98.05019672166993,0.03578363982233024
313.4997247702883,127.99112502020336,0.8793386471904179
81.07733338652919,-257.1811070593402,0.8517653670688126
300.15818814554683,210.3812391084297,0.1104408692623253
78.11206672747211,-102.56026597193917,0.08652309666676646
-122.93356442654972,94.29911957069815,0.1753165326041475
247.56694266278245,15.2255226170486,0.4930306771250031
-186.68078258255872,201.2822571395091,0.35497612097643716
-97.38537341742834,120.55333860908834,0.2555771639459531
-241.8739319704158,-68.56132256162354,-0.028865290877472055
-87.92688992037426,-249.04814654397973,-0.5631770415868123
-42.61057919574494,-128.80851942853621,0.6608523435344126
-299.1653110939159,251.05178932721407,-0.5954114110780344
-225.28047932737428,130.9778286242777,0.08447044421125004
251.60239416771284,198.89805147518155,0.3019769143132614
51.65353796929539,80.49874510630295,-0.10166319825456865
106.73560832616558,-189.41151660888173,-0.23146738032845948
-26.91952699606775,-227.54954395617187,-0.21761535983847807
-1.633973239686078,19.87687246336422,-0.6354492642051601
81.01870162603713,-53.38996232593676,0.647965678076782
-131.43938715950358,225.72806132045815,0.3212287176270574
19.6091726538669,339.839199910853,1.0142936238495455
-58.95102466187083,-87.19410000460243,0.3548717946201203
-32.758943110453856,-130.22481767287272,-0.33047793341503423
265.8500704638325,70.05255556234292,-0.0740169805524517
40.882213535405185,157.14312075277343,-0.28677313691908196
-3.7421602859133247,-406.2403887266811,0.10228174699918897
-243.03729586446613,14.06788450655786,0.28371628678339555
106.70085202389501,-27.310589165804334,0.8175580208758169
437.72158216512355,39.48349297077164,-0.1558261225549466
-113.69657952598024,-138.79640194402577,0.34232357011122383
50.954630246058954,14.56020678292383,0.7279974070669124
-295.26966394295187,-345.61038433408515,0.7463480252810362
-190.83453745189155,-318.1752380022308,0.9393208126601094
-208.5011708516797,397.71241274460704,0.6654438608001796
-179.65836721927403,-301.78581214002094,0.33442926475996615
37.93917527485918,-194.61049821720076,0.5445941788775572
155.3889971979383,-27.61632800021162,0.3724789646002211
142.61344726132538,297.6886877948098,0.4101809498186618
-315.1078602112476,289.8732924883392,-0.3089737675658724
115.48966775324041,-201.7579354208783,0.17274727784514304
185.83287808289876,348.4793209790296,-0.9790701243862241
39.84105936604676,-395.76777702846744,-0.08843640891918614
-207.44104388116114,389.7001459023253,0.6907797016823712
-24.943506351078103,-72.75910360248052,0.15316399887774904
261.36214995112215,-308.93006979149914,-0.4293877942179583
134.3174407503797,-41.44663062480618,0.8264514673659933
-12.53840764060893,157.24105993359137,-0.8168856819727479
106.95762860027504,-36.65891709886277,0.26665738267730554
394.434349408098,-134.58655672927893,0.03147984022328193
374.31692231012295,89.675082367031,-0.2620655762788616
123.83991924897657,24.214298260477072,0.13795828299891955
45.13911611637051,221.59065431298166,0.6963148914234577
-233.7106899698473,-47.78638464182994,-0.9225733208436673
-8.754283530247893,21.548098944901707,0.6468264137696259
-136.65586888498015,-198.8824485775283,1.1222460481704453
206.18189634186223,225.43481792027683,0.21358336207069312
207.77766523743725,255.87213325938058,0.2709505292169637
111.39011343602223,-166.47646976500678,0.5144876688491566
-106.96975471346227,228.48293127199796,0.27320858590150915
65.4082468539248,-594.3843201743169,-0.03139493668398535
206.08386943671974,107.4398556464751,0.5076769310596447
-56.24786009564239,-383.96343543990696,0.7101155160604724
-450.2042256572126,-193.56517536591426,-0.8736569720961573
-262.1704830679517,95.40496704371279,0.32175878239884703
144.95794262117838,147.836099978712,0.6991094567182268
162.5253335019926,-86.13349839443416,0.29825013519550947
60.829964144516694,-285.6492434237348,0.8166852398720712
-685.3918304874807,121.0379297109037,0.40018883992671
369.81929681763484,469.8504974045429,-0.41836575280929517
39.53387916667745,-135.10864321538517,1.066348880361401
-50.37460844751601,-56.61888713680272,-0.1472833152742678
104.06801578563531,-219.36564324355325,0.2936541204741797
-28.766008078337528,373.53771991474,0.08721604216090618
4.907074038549836,-380.55535404115415,0.12105670221723297
28.805095690293225,-290.28191492160806,-0.3224633895682792
31.89488156743901,-215.45881834516854,0.4842294738425756
348.96307417382155,-240.44435204260273,-0.175571512655826
-111.08998636343289,-7.823199275677899,1.2602009971329946
-91.25843180765112,-8.465862047439487,1.1537632003345515
-278.86444846235145,-349.52979842154474,0.4177970673619117
176.96365791297433,29.518872862667074,1.0745467826479134
-55.7461479878049,-289.39058440110847,0.6310733002678373
-422.8747650514887,-118.94719972040748,0.1334089651425845
152.9180490468736,160.1854394586185,0.63360548841136
185.98631165222227,-97.98419605023928,-0.009526876797914169
46.32803996192334,226.16728857140282,0.5466737327889472
8.187419640670017,-49.45901154489599,0.3989433190662458
112.97725523814874,-72.77767173725,0.4166633172671127
-277.8242014848644,-184.22976029506222,0.5367545048162059
-127.39788564963521,-37.857929431529,0.3911599667743204
-96.3038574793368,-47.19538051716673,0.2013260728962203
-48.7877213623301,-29.219208597382735,-0.0011692306593896196
-54.8618712368817,19.362478764102047,0.6622050621383494
-325.64593521644554,125.0790020570486,0.2811924056387983
298.8848478528074,0.18169894260342007,0.9789417947829833
171.50190821990816,397.51803125108245,1.0241883858629028
70.88898769245799,51.79296915894711,0.066919052471689
-505.95975336426307,-337.75980667955906,0.6028026224858014
-157.9886536188605,-93.70090765827939,-0.4460028494448048
-103.8680580015302,226.98467201423026,-0.32024117685864956
-278.57949977620575,-261.05180304707324,-0.24161614931619568
-259.13502074393125,-70.95681605703811,0.9276862832097796
-249.14168396374876,-150.28243181712313,-0.267550568079982
352.2467541980696,-541.713611906256,-0.07796813782862361
-463.3226879460693,37.2933490548148,0.2691409379365792
188.7866277692167,259.6658925022584,0.7529151935360552
-29.70802779645601,183.93858875055363,0.359877838815344
-794.4601281854337,14.769508999403975,-0.022338709516692923
-207.69334989205942,-54.12574046997985,0.08755881013075664
228.54104105784342,-156.883152694998,-0.5232654021174583
-180.98471812575914,-273.4364136555929,0.27530759163123153
455.5117264820594,164.34207540655206,0.10381065079578745
-239.95595280766446,213.3675304581943,0.4014798375978501
-207.90436311377576,88.63627500943363,0.5434429476508642
-66.89278001044526,38.365305218729226,0.2004040674256345
226.5869072224066,-130.7822607502726,0.38224749693001336
233.98426605760147,431.1412427737684,0.6449535747605302
-15.309689491514611,-75.03617100169838,-0.02552476757809513
-106.83464876924009,108.86580094335916,0.07789423044228404
-73.54166651166129,158.95794756615257,-0.36014279820046574
-17.79663834449404,-74.17635836775139,0.15022614775658238
0.709133023457045,72.26774362485585,-0.4480168486073374
412.973701225318,-121.28564231945403,0.06616089961514901
-175.31957223827848,-269.99271599998974,0.7502609259323771
571.1930154924597,58.820108720708205,-0.13897117010258275
154.4734177668245,-217.3765658841801,1.0109852039179739
5.986883781411439,-237.06755180289286,-0.1311785774896534
99.01372908529248,-128.44475121826136,0.9348158310063495
-413.83082726573497,-218.5307357727369,0.3832994424990503
311.1021877848919,-17.110189199689348,0.5303974546099706
67.00208775557894,20.95518687455387,0.1728027086880848
92.15010119440302,-347.31224050417603,-0.21139950096841842
312.22064376270885,-217.5711183277036,0.4722938698952689
-285.40622749635025,-175.57189657961,1.0103494440163716
21.043913276087192,140.62680733512966,0.01131159600497747
-237.06569335402986,333.1458630918343,1.0499440224349805
-248.30669732496324,106.8306368990297,0.3688087193869105
-161.3126599114722,-284.27712062762555,0.24150552911485884
33.515346656407765,126.78803767689983,0.48076631667374775
223.01785101547756,-245.27356783859844,0.3190202701313144
-401.95088510260996,243.120140369339,-0.05468562252993758
94.94784819746717,-141.0834362826453,-0.2810538329337261
-36.405641884222,-338.41351253619746,0.010159030486251497
113.16979903183233,35.38427412052301,-0.03779206715003566
-70.92783646321492,-481.40959534674107,0.2942376534324259
-270.84945040815376,-118.84190445363132,-0.085933117810163
97.3967784417467,56.62846111343198,-0.5297068635788813
150.23131447582887,58.76670137645682,0.11361088578117554
165.25635187654007,-153.45966181479344,0.6521268825341158
-100.33653149081161,122.63559746654904,-0.20807497164167799
144.12688533475668,53.786324119797825,0.23765354315436965
88.95406031873544,376.27819098466466,0.48813049544115406
182.15868772870937,-32.03690401856371,-0.01607859054116817
364.2070193989997,97.80294993348296,0.057989220508849526
-105.73383250120025,276.22539727433394,0.9937379850691483
-77.6667526061406,365.8932358227419,0.4499512696538626
-17.73146344190668,13.565320711852596,-0.21053874217041485
145.757538022538,11.684643578083492,-0.33020819451418354
-211.3982941708225,54.20139503232557,0.5396768537925245
413.47875343912347,443.3404126057428,-0.4345453479519435
-1.973280482284795,133.20129660790968,-0.45203278844464473
-1.6638149916837854,-82.61020367344848,0.5766372452412971
-322.83613205726436,261.11723355826257,0.41563749252343873
-376.5029742752695,-111.41378756000134,-0.25061210299442516
271.3036493215317,67.2773408371728,0.7472597779441656
-237.64059411566993,98.90167250630138,0.3975766259327974
-281.35841802602306,-362.8286936468114,0.19560804561651665
145.2817367862627,277.42906441963896,-0.6357693120476615
113.11248049567556,-616.4398493766224,-0.6417869004400452
-143.6782640461697,-261.18453038868523,0.3537709046671095
-366.8588752061294,-79.18601164480374,-0.5141160583778703
164.15884100198102,145.55534222665977,0.4801251864223088
-90.04908155559254,-179.08542027498586,0.8794717008208668
-52.16089524934412,164.8854788747575,0.6205339719832822
-185.72625565271431,-176.05842309377877,-0.07555548068762297
-46.598464858058385,12.948962144493217,-1.2012970176701752
-262.1194893803039,103.01012248520101,0.7833029548429771
122.06670298438283,-47.99392587189135,-0.3776639571902251
106.76570624375353,193.45643874552582,-0.18374162143629802
77.93301392345869,-239.62213520061297,0.5963104350367177
139.10593400870485,286.707636981659,0.20180420230802992
59.67398340333189,-49.400577454409934,0.967465698358285
-266.65360687813353,42.895153426684885,0.5187892929926431
39.2910431173828,-77.15440883360516,-0.806519695831885
-168.44545401877804,156.23301095175538,0.40163170926301517
-187.00406677747193,-128.81368830831815,-0.04131226711438993
295.60340225705664,131.07938275722807,-0.19131607120694333
196.4664414398626,153.51605037905435,0.15038168316142236
167.40495389345267,-2.7065837052743693,0.5050300699362552
-103.63874481250576,-136.74110517495123,-0.14455986430678208
-108.59741409633683,370.08908949184536,-0.8353322522497997
310.0011731126513,-97.44278684468429,0.5928537274471616
189.80582616111138,-54.07171703212953,-0.3647240504036971
-53.15423512276068,-226.34027685648746,-0.05937910396344259
13.342699895556592,18.887845616102318,0.7707883457236258
-178.42142728465637,25.27330875389489,-0.08857850734307787
-279.33046099671003,-230.74661461745393,-0.16082376852680963
-156.89763432649607,-186.6431534274893,-0.1423860501901657
75.07994384004397,229.75833120035983,0.035300756710386266
-35.49260175730922,-302.2720688379968,0.557882400907729
38.75891421927754,360.3960017733559,-0.18512027658524438
6.931557677310889,-241.0293295191737,0.5238776841906471
108.92685663872525,90.355453160286,0.7893040197699248
-39.93339486256369,-1.3516490315589391,0.03797302752998222
-77.20753541883619,52.62328880839383,0.49187790496944955
423.2793109037107,220.49136014188204,0.2689758523106032
48.550424267386454,42.50305666543558,0.029592445178624943
244.74679019510802,-24.799064318046867,0.3883841983217687
388.2680801074228,4.192277429893462,0.3480600483163596
238.7487089736057,-122.9361843153949,0.40285396195708767
-268.68179623614054,177.34133356431957,0.5072063268210747
-282.1277872213364,249.82837456572327,-0.07173866620053981
45.88563252266464,-56.46512747917918,-0.13446888887380198
299.6445710333884,-79.03037497618686,0.2041946340765259
-55.15948553196313,-502.4951261094822,-0.3844714002378585
274.1624730225874,47.42462455621912,0.8171245896910289
42.87079621958522,164.65474541551453,-0.5105249317143603
392.209975975107,-160.57565479621468,-0.7983407155313731
32.771824272193605,-456.61284378890076,-0.48315436718729093
-332.0039767290133,86.55313786729668,0.07654138802429454
-188.55695592186484,373.8054105179583,0.2782342320001754
-406.8703164646372,-477.365846227349,0.09034137362819941
338.09724065037426,13.868796160731916,0.04181569987918293
-55.64737072994237,-180.025799833715,0.5878556996722082
197.85195957561015,-10.268186316070237,0.11836514629095218
87.45564188630883,147.75262980067112,-0.13985955518227544
-97.8861113117795,-89.40234076434412,-0.9409803479113019
424.4892534226798,-38.16388195427396,0.39237884331625156
-121.8233876963958,154.70785509455186,-0.00490445020108074
218.75064302106105,-111.39067226158173,-0.9453277102004247
-234.07557515597856,-27.61446311239753,0.28815927508840716
112.05238558005288,-282.41889289267533,-0.03164172396900106
-172.11908534410924,502.6570218093429,-0.36794874561226426
-379.4713309337161,-251.0878283965468,-0.21684125731422327
88.27221499021647,179.35146467694167,-0.7564941339036828
77.21698633104879,8.054635329952275,0.5483650935653481
-132.81982755955696,162.7579543130639,-0.16763836818022326
-191.73649330414852,113.2818960682445,0.24378943084611526
215.57499142133926,-313.002119394134,-0.08797416889316972
-192.46187865243633,-91.48756943476943,-0.22385178113397397
-96.0948195676783,155.78609119883302,0.3705224229913678
370.81670185270895,252.4969003790697,0.32589600588072704
330.16170090840956,190.4141790920121,-0.9338144814623066
-356.8067146739641,309.74490732776,0.20183616758817555
-36.782602383402555,168.67304137484624,-0.8392258523079039
-307.7661357794169,-393.2738738737224,0.057615154689671016
-58.283183263841956,368.7755538842567,0.5809024555380522
