0.001551335142366811,7.155119815998928,0.4000074792670716
0.03905623146762969,7.57463863901517,9.60258220508053
0.04538136974110527,7.684029253030333,2.296475486656001
0.0002710135388024393,6.6046695014594,8.197307600805855
0.04612064075989685,7.261264627928257,7.141770173316182
0.02031626739126538,7.746822683510327,6.015863143248254
0.036427169369904984,5.047620209288975,4.281265040983195
0.0171667098145613,7.155425684532936,0.8335111804601858
0.04362091801403076,6.299694056924789,5.072661532228651
0.03207779546794969,5.867683647511907,7.093632363590844
0.0024560590398611803,5.549103511548774,7.987814660972386
0.01660382810378508,6.117012049984245,1.5031769920962823
0.04062444722109909,5.79721203357769,3.8361297960316643
0.04319095149810558,5.318631292030024,1.1048411478406195
0.04655272099358351,7.574973248893917,7.178548165078777
0.03424748391937834,6.821058021977743,1.2101685151231856
0.020859112945511474,5.012860729112486,9.232488576511725
0.03748927377462294,7.744988552290998,1.72007333462888
0.010618485794646443,7.366511142321171,9.90717890512637
0.03144638578676225,7.6862311973042665,4.013734422227274
0.017447846076504455,6.624834619263159,4.964201932572693
0.013635014432315351,6.359800280709768,7.374296352633451
0.037859224571637574,7.526882083884361,4.197568962509202
0.04108768599779182,6.479183208328837,1.6418022989560765
0.036879138533052754,5.117109897626326,1.6889311016159692
0.011511149144872446,5.8944148219991055,1.4588869127361437
0.04376605678710543,6.965147248877403,6.771481475701701
0.04500519703061095,7.487857194161146,1.452945572370442
0.034564824256142136,5.562929690880716,7.994372268260916
0.029972833858023403,7.56435712256526,4.6812035808980115
0.018938632900215104,6.363918415330974,7.4454925488570165
0.020578791168672235,6.674029116405938,3.9593602922764637
0.009080780475267924,6.025428158580686,3.671453727406017
0.04232119157654557,5.399673116891076,9.177142312821212
0.03772816960642294,5.5728390944563575,3.718231842810881
0.010246119051668551,6.3758497611664815,6.353137210425812
0.020728654509678996,7.1069966697897655,1.7434831964507402
0.009881361852889448,6.449850812566178,3.568140269046353
0.005309069624705293,5.378511816118751,4.3438977553307145
0.032518135661216786,6.7658441046223,4.134491827311253
0.018128247111400483,5.718009399743347,2.661378236095433
0.020919739444659437,6.418231126649525,7.887001862119085
0.03325151584134632,7.025289539462889,8.318132602892943
0.024685701329322792,7.71214198799837,2.203843950638368
0.009379776753765513,5.206882643638355,0.2712280665781752
0.04177095282067635,6.013749992816453,7.6183303631484165
0.002480843814240286,7.48629108521407,3.80162608135561
0.04687405442973446,6.882093184497327,4.687416065494581
0.009876638375228359,5.372801101075962,5.216226345175023
0.03478062048372348,5.825545404088528,4.915855275880899
0.00297590187389617,5.650516467800525,2.216754863696302
0.047644156753001966,5.73205636755653,5.5207189083050565
0.0034141675150572816,5.388438489322633,0.08435130107627087
0.022280210578730815,5.720257114079098,4.584111903114724
0.04291012877603997,6.724511871233712,7.0373948749183715
0.025422798505396284,7.494576645935574,5.903524758785823
0.03931605204791835,7.9435310082578345,6.263118796300002
0.02793281110062408,5.210712828347197,7.979218874065024
0.010944953454994029,6.150541439226892,7.0312207771581035
0.026641657157905216,6.221338945842698,7.979254216669092
0.005654857871889907,7.802205711090904,7.771816095865062
0.016412969276312608,5.886643515500421,1.0240137991756626
0.042322019895625326,5.601495564398757,0.6040027338999621
0.04239306039831613,5.225906490821244,7.6742196419084845
0.03362286010274395,6.115475599593369,2.1224868706530318
0.04751003725844195,5.2949992753773225,1.3869269087833402
0.007637338634138524,6.372957930197097,0.29749696526750524
0.015887552858193828,5.7388169019297335,2.4776435262219043
0.00019927918384932686,5.445256385338031,6.682192421627423
0.03734914448730727,5.659636321135499,9.765747648978671
0.0266424772186888,6.201222786395227,0.6895531518131093
0.0020459064974468143,5.722288000583251,6.6261926782300105
0.049305815159842906,5.697800192603161,7.676946913471456
0.0121912221601714,7.397455623084378,3.6879607504785605
0.01975605783858045,5.430695482027255,1.7569780209893526
0.029908126655436518,5.669180072301418,6.9339978908494935
0.030829616197514294,5.2841750304938735,6.115422534662965
0.02359981608543707,5.425045909074563,4.945262807630283
0.016141621282522767,5.360019677244462,9.342448472900134
0.018486257019207787,7.903782150060032,1.691749987577349
0.022287791993664447,6.427216574743619,9.207823213506181
0.019009762591555943,6.726165008397935,3.5202976831151664
0.049910455650195855,7.4197346869498535,9.362381718881874
0.04909816013309684,5.253435687757202,8.367449820273546
0.03814924962946312,5.6168496972681945,3.676960566908111
0.002283567396384739,5.881206173184486,2.8404409242146444
0.029484339117416353,7.807545721560482,1.7649161521968215
0.035934142453293044,5.687725352964848,7.951989942190114
0.03780712346549556,7.052332680047128,0.11418819598136953
0.03263763044526565,7.708546832412923,3.1109759402232906
0.025854307603594917,6.900193531998587,9.08611737858719
0.03683620987232172,7.627867369146074,3.11458765728847
0.005291515266645542,5.342104239851137,4.97831635676401
0.012178608629617588,6.70344041213252,4.56148002340644
0.006232969142650491,5.837531076893059,5.565495948090349
0.03838137619067138,7.558880366583255,8.730773064829897
0.017104564142709285,7.146219798256756,5.054518293972839
0.008105316783678096,6.645888635515718,5.988527939685637
0.00839014954823658,5.566957185229068,1.692849231471465
0.006207748567136184,7.6302578803697365,4.624542731823594
0.014245690302814258,7.764626055622036,0.7321950449514203
0.03327114906092351,6.875138483137447,5.977140779929097
0.02632376424302618,6.430563363025037,4.952242781081563
0.04603550459532652,6.581037363331847,6.223076942618606
0.04027777316747375,6.8942336833856785,6.931887765702266
3.1743459007976814e-05,6.539642817005799,1.201546072500168
0.04888247121728583,7.950514426279804,3.2146439559489446
0.02240730685457137,6.272236402758674,8.892832639012894
0.011348653330618564,5.790581637197241,6.806804992555946
0.01126181014485268,6.586822301898324,2.352931505403869
0.0011266774588265915,7.858528164174972,8.687068376164126
0.015414273205762198,5.898966463194884,7.015772636327554
0.019142157578876846,5.418784721994024,4.491359528448066
0.032907668578519234,6.2220395204116254,6.055439196628594
0.03901737366280547,7.64586089782414,6.19344190613123
0.024600080811791464,5.48446215488346,2.369073959799949
0.03356879071161246,6.909490365133509,1.3445060451061142
0.02331098990585491,7.722339021592589,7.204252459259913
0.019035972727860336,6.69915630103768,4.94111023329387
0.0026688255585229693,7.985780119566645,0.12442810000767635
0.026802153818150737,7.578115549294591,8.992372562693777
0.042901673778652144,6.4460145326041385,4.193472003708356
0.04297853727326972,5.002048888005611,2.6380781276903784
0.03626737430083835,7.800264089265758,6.5334851576229935
0.015182666872135948,5.8476936610547625,1.739808476581266
0.03039727947540105,6.832243684343059,8.24426938655222
0.0061499356926613125,5.186439673615304,1.0249834945608316
0.0004941064887368119,7.302780841603257,1.633029708873447
0.04769797052037675,7.877694149529832,0.2771487390614247
0.014592895435530696,5.770509885857073,8.133189854626636
0.028968064608811572,5.576681571854564,6.769050243095056
0.04687320627386276,6.97043300661866,2.2715436116254715
0.0061775885052618665,6.897304970315403,7.015011293419528
0.016863625116229852,6.845262207772127,8.532371124985932
0.032690626006860304,7.7215973722802005,3.74870753221368
0.04862378528171015,6.053492081711996,3.607720211775206
0.023104014793465612,7.398311220328559,0.5430050657017782
0.03852582527531677,7.459686179889434,9.777852385416528
0.048455527329809296,7.483366681150724,3.2595160187382355
0.029727062844751264,6.418559014613889,5.148113644965636
0.045359670665905426,5.615603466411774,7.748851557126416
0.04242510485426438,6.080666129232895,8.777934251316328
0.026632902767095224,5.1602822261570935,8.31878252379592
0.04782016786652016,5.4103276958291975,1.2500785052929952
0.02522717495778188,6.246239788607279,2.428064063938132
0.016167264339583997,6.095689120178605,7.159148044369202
0.0491740642557463,6.014639244887066,9.99952930775577
0.008407394983553862,6.789172952495063,2.2095256065700166
0.0061498707645493535,5.043916001554044,7.719955971832723
0.012267937687768704,6.6088116381266335,9.469343566147408
0.029237465477368548,7.0692581041419125,0.5430291988016211
0.0353339373476326,6.103949352250417,8.52166296615375
0.02294294731445854,5.54802398269979,2.302251141824554
0.04515691579311863,6.947843061796619,7.401218783027938
0.024211411757408152,5.277803507200774,1.3640311898813484
0.026851887509431023,6.188219166970164,3.857999563826601
0.008530531769206817,6.782838096277017,8.431118812595292
0.021424123548447745,7.128637427614437,1.7354456906342686
0.030018055743079298,5.804195884204294,8.788078205144226
0.04326141738650772,5.1667019702140955,9.834461157314163
0.004250200427758111,5.9539466775301895,2.7664372100295767
0.03962883588386281,6.720237690421421,4.911550161185571
0.009779739077651589,5.246317083222754,3.222528361689605
0.0383158185969445,7.861719105460949,7.462339872934223
0.02079567473048219,5.877252160563448,5.309922506357083
0.04399176090784748,5.9514520283950345,2.9490661368525393
0.020696553714108747,6.864149670546598,5.695596847172595
0.021430438918789013,5.169069812409049,1.9663990976491397
0.010705516691093365,5.3853351333865875,5.661127987098073
0.02771479652775702,5.663131542907047,7.449533761242817
0.04216278146137078,5.0029162062154136,3.138146500396777
0.009506191402848713,5.501353609620483,6.993010640441128
0.04662372103592108,5.953383922575134,5.783882315532628
0.024736383276106222,7.844095716252135,5.066542718922063
0.0012251455818891978,7.491759088670467,9.887928419912724
0.048158070271625636,6.686844588691793,6.89332619301679
0.02973656483776137,6.990834144640686,4.757067030430456
0.03492953071463176,6.307451216377494,8.487260035307997
0.006057340214025909,5.008436985863462,2.684180745546806
0.031319214563697496,7.654221945655127,9.960680643312704
0.034505239367961786,5.525937987438839,7.86075901640706
0.01370374531178467,7.47500297582147,2.418393686855328
0.013559443560711683,6.4470809662683415,1.995134338233866
0.008149700936847927,7.204325987470117,1.4464215622581111
0.010019684684558817,5.465006670649179,5.434784190231532
0.03100924550723504,6.400186881281657,7.805626512428592
0.0011394291353751475,7.572919333515321,5.238646660010499
0.04063290624328579,5.13654492599677,8.745089942035053
0.0008342616001192793,7.360197215575545,3.2254300759204044
0.003948289778936837,6.623209738272738,7.910978909991792
0.024137739483086458,5.220166830338919,9.84431406768871
0.019669801848598685,5.552632436559101,4.039087022078682
0.016952575996623528,6.2367251633462875,9.54100722054358
0.03649175739369963,7.8769958939103,7.556632066808104
0.0005835989661396202,6.137891514218564,4.873065977728205
0.002671367980326922,5.891297127706646,4.941003283550951
0.04898612498035148,5.3642903069409495,5.297745506150447
0.008021420791652084,7.19719869300155,7.6052693345821005
0.039852692088870184,5.814927109501828,1.23284966403449
0.037259307299136714,7.866396823573202,9.7960616746355
0.014776710522441207,6.8110702689046105,0.7204146147535695
0.007475249789331645,7.380108825905525,1.3713634809125252
0.03378566135967077,5.884433478211705,5.93874252582858
0.024623583969768784,6.432314129919614,7.029943571627092
0.01704794102054898,5.5147703335304685,8.326012853251001
0.0021899601083540444,7.455067666039598,5.831879904721554
0.0005117814956106248,5.299036573940534,4.324746794286051
0.03637179471329707,5.32417882220562,5.022582201146973
0.0353161077801268,7.450557871684582,1.094062096092937
0.016123087327105906,5.194864149670247,7.4672843590219165
0.008601326072854599,6.764904027481871,3.738991733931397
0.021363857494442084,5.34828482308627,4.686461003107746
0.03883086373808773,6.84556755658137,8.143673923939495
0.04749945525863838,7.2829393375593785,4.858653101629836
0.04438489142135228,7.477520314479712,0.15630096927004122
0.03760940936152843,7.249768876822209,6.571120544014551
0.01081428530444985,5.322825661567981,2.6348117339810653
0.02472201412593132,7.242647302204405,7.473837519972587
0.010457168022249282,6.081601405604909,0.20752336878318234
0.04119567433682376,6.777999144814413,5.2504464322937014
0.013697831805618899,6.373101647925444,4.448444134300846
0.04175755050003205,6.926327870274493,4.084652783182446
0.00023612841181001044,7.15689806017178,9.340579277581595
0.024565566381115147,5.942477524799767,3.6095927328499644
0.02215594407554701,6.099145218067687,4.153202720072633
0.022935659939008625,7.963812806305965,6.610648925121179
0.018866005684725393,6.121438593821071,1.5463682858360572
0.038173603973466454,6.6948833215258565,5.852116107190398
0.0454410531610635,7.477917112808752,2.186781309301884
0.008416106306966598,5.768612190052393,9.745594252120176
0.04194292087886086,5.067147725086994,0.3091656262304998
0.036427613151907505,5.440378042241223,8.729935418250008
0.025893510767217638,7.578885526325837,4.539134702528606
0.02125342897056245,7.861236980709899,8.541923817848968
0.02492235321878655,6.384612364336773,5.702748370800341
0.03222963370500892,5.800064188219886,6.752978649923702
0.016181844151856306,5.616377329434538,5.706663105447404
0.014957648939496105,7.462016033310223,8.830236258006854
0.03706368976551159,7.628005608549618,2.9116040908455743
0.027887161337898637,6.954134531784058,5.479386874404409
0.02492273204451788,6.633050575940891,5.706937765543149
0.03887141242798188,5.408160883008375,4.223356783792237
0.049712824166703834,7.034547626667204,7.504197115714372
0.005611296890121598,7.4567547411718,3.9637199352872066
0.020584392132325414,7.014518605535985,7.248759666400146
0.009951411914307923,5.922379806634333,8.407931913019143
0.04490545057131476,6.185628234679728,5.897998061380607
0.03788366123740841,5.079005648992282,5.860748128516659
0.03046362098501005,6.576991692404551,7.741190503193214
0.02047361766866917,5.389624416493379,7.167657550290168
0.04607262100721676,5.3788232123528905,9.2067584780567
0.038964081816629824,7.977503249744336,1.539457149250475
0.031236614522027972,7.5714402672554595,6.936607680273718
0.039622822381212064,6.376666280287431,2.5317503146656604
0.04825791147695802,5.856444798339499,1.3060750811439026
0.00853447659340576,7.808831381513159,9.347688897591652
0.035583530268857064,7.3860474846097315,4.500654359985383
0.03246804003200201,5.934364580133535,7.535895490453271
0.02890432550276316,5.411994124107911,8.491219848706145
0.018273183967204593,7.285523686526001,3.3506018230634496
0.04703895434788164,7.796482404838752,4.128998759376166
0.0252790118218629,7.954219236066363,1.9032581275502125
0.008742427705736817,5.8817697800760005,3.5594096000915054
0.03277652342954457,6.607714146569508,6.372381200843443
0.039156369658073814,6.544654096325766,2.895942691848419
0.01712792862985525,7.15602628341629,7.974823265103545
0.04140364787295919,5.309890919102642,0.5288975768083559
0.03693312582627755,7.519798257723561,3.957361698568346
0.0170452021155852,5.047897979379192,6.494800375932893
0.038728898114128774,5.719256505296562,0.4935653929666939
0.033563115664176066,7.147363542349785,0.5148987769925328
0.00601441500049465,6.078032488786755,1.393308094835397
0.03690804789385773,6.7580254390226635,6.286878404520512
0.037829472499343146,7.282532861120983,8.508787909692181
0.033622601658168126,6.376298104016151,8.94291282545005
0.003906430082749879,5.327441301420113,5.263598776405444
0.046186911178435555,7.180428125954158,8.444727772523645
0.005324056663406846,7.2244390126539475,6.653550872601803
0.003756293849643783,6.975235054557459,1.70257008230703
0.022819535475440147,7.243875682662132,9.685125709718182
0.034677204624524234,5.262761270878259,8.925303028195193
0.029816698672888733,6.789422304196063,4.52815851182244
0.009008328380500847,7.965129070320673,0.13752347600546555
0.02309710029264643,5.526838618117248,8.697226113807428
0.011182219214732942,6.548199698039952,1.167397722190513
0.03950933714766642,7.496506445524599,4.352058081271277
0.028704853642183822,6.63382081833647,1.2457667714109466
0.02742713496801388,5.971623265504496,0.4390349574963681
0.000630308866678453,5.844758706251654,3.8728413002474493
0.016066046715239996,7.259608404777447,6.49876614106974
0.03925455872624983,7.151477439302618,4.918773297522966
0.035289113664555276,6.946824887999789,8.338977868424921
0.028374573597748677,6.596907544535047,6.358615325581651
0.03803784545905961,5.9586255097992264,9.325938479734907
0.012608754349980806,7.41204878982974,7.641045747520877
0.019922203315480988,5.016726086350587,5.373651967036039
0.04731221130104787,5.808755734511383,0.6105233115264019
0.026239255302394866,6.263952587935219,0.6575486602925551
0.019439380139994713,7.159504315039387,2.8639157840978537
0.0041916026985075626,7.283500796120283,6.951542356598458
0.001956705508989237,6.929003031243276,9.14783318090254
0.045277193412754435,5.3518467877257745,1.3308651181597186
0.02680418986408366,7.62071716761668,3.5456490140369166
0.04577192045376785,7.018616935672993,6.008105374063342
0.03627802057139526,7.106040549131803,3.3396597849183705
0.03299206341761953,5.796888271693756,3.936481091770961
0.03851290083080778,5.272113843382023,5.009740312562081
0.01095246535671976,7.6615330566039725,7.02547411896459
0.005499184950828973,7.813375481239657,4.366853372082501
0.01396447438317839,5.909753650556538,7.411275603868965
0.03680200785940086,7.163428620850424,1.8779780029874826
0.030850813882876735,7.176812475811715,5.833028472965271
0.00010615472859757392,6.413239976873026,5.9138611862095285
0.00016739327956108996,6.0894500939082725,1.180980710500591
0.03394376597455445,7.968430930614738,2.0999177877575645
0.038864898486921214,6.7839912326248015,5.814159606107442
0.04284128148956349,5.577423609011995,7.77749737359605
0.019749113011572485,6.33578843345893,3.876242969084762
0.002817984179430505,7.406962728518613,1.102480116406097
0.04751886293869997,5.893099961880455,3.513387040932654
0.018947323088772963,5.988320322490915,3.027262175049976
0.02686382480431534,5.281786951262455,2.546106038155588
0.04957231537573453,6.2794831339887835,0.4139825963802468
0.027118328702581598,5.065276736891512,9.293107460876055
0.01946489823077841,7.71539359076184,8.648240486916057
0.02561902900929728,7.961324323841507,0.2203410005314843
0.043193472242387086,7.3487941687747815,6.81386117627787
0.010838088028017417,7.852157401866738,0.06832627582277984
0.006159943848292404,5.1853585283661205,0.898530840722408
0.047763349425430195,6.692256943531476,0.20771237091074535
0.020103000182199515,6.005368704762155,8.457660750015924
0.024092956474850203,7.028665849712637,9.82659557463773
0.037679293150508116,5.304042135410506,7.77768158936391
0.04841614721755129,6.139863167034029,2.897105507691853
0.009002198311195992,7.166748846354028,6.384295023629423
0.03983732088221222,6.991363425480695,8.55774552016369
0.03416886987354018,6.39523489556858,7.362046887014619
0.020458305823284728,5.9118363353015555,1.8075261823550304
0.019063127491272543,7.316934605111818,8.296313120277802
0.002369313170204318,5.523555841570224,6.703084599120613
0.04730865927943498,7.426593858057417,5.503596758891537
0.02713609973936426,6.491490146838011,6.629069484083593
0.03660858348270566,5.578111152412586,3.0722153550615996
0.01260170619417233,6.967671274468376,2.6453815334888375
0.0367191779561724,7.482919266185218,1.48447985823693
0.012691902660419885,5.120000544183593,3.3098738917225576
0.026915335637989868,6.363304776026585,5.228420038907188
0.02976720300332822,7.769879365531564,3.018952031922794
0.00011774089959983303,6.688316734864912,9.731141108183673
0.025662626394803323,7.863345895660304,0.5958503300988982
0.020300428126060827,7.9825435218328735,0.8294018146460935
0.0007558673595796539,6.584033446763621,2.0086687376742463
0.03292225031637935,7.2960383028992855,4.13145391903952
0.030609886040248103,5.07857548180515,9.824191012174742
0.0408109385198312,7.911215762588437,6.175586511850067
0.04106573483726875,6.904431758564811,0.4571650670094618
0.002458440680500074,7.016020162225779,5.614392880007926
0.030100292996327223,7.114560488784136,8.60737035605254
0.04739227653993642,6.137300681221639,3.716152053430556
0.012748434113998187,7.806953563119032,8.395584992018406
0.04460796314657352,5.813292626623493,1.0623206448717648
0.018736055286036484,6.919183884903588,4.049858472330112
0.03994932682992719,6.993006003736199,8.546343231983982
0.01731636107646779,7.703602069299965,2.2882811836706107
0.02917789756830377,6.2563835594438695,7.810166872614801
0.04746484725513516,5.842318924772804,1.5092918037219738
0.019651574104674347,6.0965050315725575,0.17107116790654464
0.02002432614959365,7.328003666183542,8.81537199473917
0.03357997808703624,5.684012007778023,6.595141687882769
0.037700539434444964,7.011351039021129,2.7097855926361056
0.043834643648260035,5.35924969978903,9.682858528967685
0.025310773664504117,7.484124711392455,0.24112653638604487
0.01507718913568853,5.975390585201803,7.784762788056616
0.0238028437174313,6.6100379289133535,5.779986285763269
0.044450938379331506,7.707691049131236,5.7729195362572305
0.018116506606437266,7.085172384180546,6.3679328768474655
0.006171029381379423,7.041090555174055,8.74160536120566
0.03196034167448227,5.007377366580268,3.3749129832124245
0.013665685006175888,6.883064459851736,1.8480149002361657
0.04903611728225527,6.281467824838259,0.6523698579059478
0.0038777780753449843,6.424553333521711,5.37057793138762
0.0012108643893153637,7.732935903180673,6.752637843576986
0.0459070477278983,7.368030632621836,0.3281629280371001
0.0375951215408975,6.380265032226935,0.25664908556931043
0.02741220637275188,6.7895711157484335,2.9589731276829614
0.011048463252590669,7.153904137434688,0.09117759122213243
0.02530010387340484,6.465444185553037,3.5952553588131253
0.0029970324916189783,6.035193521841379,9.713155139801685
0.0323382153906464,5.163748383127422,7.301165510748318
0.03636856971833255,6.345570790293154,4.578950479020665
0.04908939139442015,5.582817590792097,3.0406139123277756
0.011681256847438638,6.9338088913958655,2.127890537369368
0.04842942123787005,5.00410293540653,2.791333863552307
0.04439250603981071,5.001403687387304,6.956664046314772
0.03766171818735698,7.980860293326248,0.8516468721714121
0.0480031010140185,7.537901414986503,1.1860551831353305
0.017878107603007582,6.9411967654390825,0.017983193832843414
0.012520845959037276,5.9252314821968275,0.9954297915673449
0.020420647786118174,6.37539352310152,2.34089970511158
0.018853732384355955,7.3666211357839675,7.499997864320628
0.013892855272278893,6.868746455830772,6.5127952383479055
0.019030829657846,7.026732603394183,5.586507194199749
0.04666863073517278,6.421925869729093,5.6870664248488705
0.03382623027139524,7.750298337585145,7.022798036725181
0.045222670384113366,6.039310321970851,7.170606208446482
0.04144862556442062,5.648844798110545,0.589496813832695
0.022617770672978654,5.507494399303198,5.745597598128969
0.03748049881695357,6.6302814032263235,4.968777849240285
0.016269606385125285,5.994360738471817,4.703494500683318
0.04610887934245991,6.009799199543222,0.5389693866233136
0.027134260758510626,5.90248098817126,8.605267319098287
0.00807083076283297,5.801142451126708,4.140118853315492
0.041028185514470586,6.499293104660113,4.110682955475637
0.0364593626205398,6.319158942008865,6.301915189035826
0.037570072459336884,5.7658728646891735,5.941310234409852
0.015088645202451574,6.855738207733803,2.055740245142462
0.0034789625411670356,7.69963200360309,9.524647485119758
0.02267721602990059,7.760309672646862,3.346879325224692
0.03798775709365533,5.532330072194666,9.505982206455272
0.031596469890972624,5.958123939850303,6.612483818057546
0.020647121625883946,6.122033777725999,0.7245800318095874
0.03835543927604123,7.349086253425002,0.6508349448517403
0.02358789284361719,7.398425529041878,3.5597785969201823
0.02495722261954437,5.109543750563609,4.595217752961634
0.008915496211641156,5.538456845875216,5.74030863805379
5.2699454737764606e-05,5.868587619143762,6.083726932584596
0.046946169689556005,5.504048795431147,1.464431503433119
0.012602410832713141,5.983476214744886,0.08230442732246823
0.02265579283667142,5.3766362019184974,9.231669886750213
0.00885838355416725,5.108910102706611,6.898687448151291
0.04736395326251591,5.821546308548554,5.813654921168308
0.04609246798984659,5.2713013713455075,2.0876327211744927
0.014507162053804713,5.194255103371154,6.174105064977765
0.015850361829856992,7.627432892672448,5.514388445410903
0.04643411128954324,7.847794195516947,1.0539637434473836
0.048261101797040816,6.927746322272748,7.463083848779533
0.04574964275623833,7.757281716291503,6.634192884765503
0.024336611313043946,6.810671980059572,6.089116939253555
0.039108505264639604,7.959562044555887,4.847322585111465
0.007091104008844329,7.932330478333406,1.9550927553271058
0.010356082654732458,7.914413594847294,9.287774047081742
0.03911241960998259,7.101290371942723,4.399776828970069
0.024861003737727178,7.065940785066248,1.98010690391776
0.002241138236134066,7.553378948672709,5.022779401792711
0.048761723141206526,6.875263077901835,8.079185960772735
0.03888424064832738,6.855835820016937,9.30746413707057
0.048197519185617266,5.268305635075671,6.860980687766565
0.028154493894541516,6.75251379442526,4.01810530258326
0.033569858017556506,7.068991908288126,5.2639391938943305
0.0068673232655160794,6.729133466751099,6.013654182349918
0.011235278012991373,7.8453455301565835,7.664243191170838
0.03133083140201787,7.327217878138276,2.940514739466056
0.029496344782511133,7.067065615116783,0.7018807608330424
0.03545948339803933,6.734495970999864,4.724958997762531
0.0033461479925827042,5.374265113573092,3.1233243695496773
0.033244728843784786,7.234519985425049,4.31883457765079
0.048041968095934785,5.286446509762482,9.760498364045478
0.012238359220595657,7.576739657894148,7.283262759326181
0.00920536273720376,6.3784620369876315,6.124568985915026
0.015381570465977785,6.5719216404174485,4.866679089811639
0.044532775518002624,6.731031239701077,1.7036323356232563
0.007637989213602431,5.601914968012186,4.477209083132977
0.020534160478653377,6.2013438965361365,1.8603930329028628
0.023789221000878005,5.573386309182898,3.6314983053162964
0.014423942190484297,5.07358872397282,7.370482956059052
0.041475040301349624,7.8180498119094795,2.997448325852158
0.039638883203815034,6.936561838511699,5.151047206707866
0.02847057456783668,5.543762981892574,5.999696947354984
0.038697126345773124,6.439433867067683,2.002552580660736
0.003575768391887574,5.282534182053111,1.8107437038160856
0.03915311470134842,7.715867969887507,8.188398934639773
0.00816686405671338,6.472186674292565,5.3379469757750435
0.026607374298714084,6.609921395221018,4.795285240278523
0.03367410427461491,5.732034515053697,4.2776340565955495
0.030593982131866638,5.546423120024219,4.766050659244623
0.030996137493976006,6.943827438838415,6.924484951314822
0.030312714986042516,7.5078128216979,4.283707705271471
0.006706445883557938,6.713466710252483,0.4058864638271442
0.023046374933821962,6.7557669579898825,6.364460715822191
0.03366530008418483,7.017456686042056,1.057040350141002
0.005560298833779154,5.0991755700607015,8.255194791796
0.004163262973711212,7.720095427925948,3.2057060210654664
0.009143153118508862,6.175353153118201,4.599458647934524
0.00740559660585809,5.887080838852846,7.93125757537733
0.04613078423559305,7.371798967553218,5.097976107320646
0.04084281639619856,7.807429239344964,1.9363801557070937
0.033048589321536086,7.4510663306599,4.697918107913381
0.005710912603238055,5.375967461035659,6.2520143913697055
0.02254240625464948,5.822828669640207,3.1817581700114483
0.036846293867045514,5.891515278829658,7.445042077896245
0.048254257293258704,7.644657501683542,2.7347713591865705
0.01262092128834405,7.118717245449775,4.0370354818006895
0.006507111058099874,7.033455707915429,8.163790947798903
0.032937561271963456,5.6427999672228415,7.207607057617427
0.009716202929232877,6.6555801494965054,3.1143972899761065
0.0384067117281904,6.887981923598008,3.0851510213633535
0.011440414385205223,7.258452677802835,0.10392702309388158
0.047539266956260144,6.682016732524346,1.021295063091734
0.030018817353352486,5.663249575912752,0.7974838329119627
0.02584702546457095,5.993330784898113,9.534355662047295
0.02679733812695529,6.881068471290561,2.2594016888471167
0.03259425005090896,5.5440831706553935,6.128567186955907
0.006103606020489966,5.38341168064655,5.208557944311224
0.028965932648600697,7.6351034096856125,8.883148522150117
0.0273865957311012,6.830752919092385,8.316719278974476
0.008274413477491294,6.025337134477146,8.678289177608807
0.01053274721054694,5.520650505640692,4.411267431113726
0.01360685298594716,5.799034277530234,2.3147856154055244
0.04228044677686413,7.964173886420259,0.6541484061281155
0.03694299213485836,6.636150279824065,9.924845121374616
0.032260602435401874,5.574534516913256,8.257946333295635
0.04549103895920715,5.552613594110664,4.427499146701841
0.04512590065581138,6.953081109753776,8.516096288654843
0.031488200866354954,7.555577952275364,1.6242323504234024
0.028027538611653552,5.900572419118608,4.786237180535876
0.0032879257073773816,5.119059596808532,1.722148884335184
0.044408097631627036,5.090889580542919,5.076611464461327
0.03644544928544515,5.784459949871212,8.823651223988442
0.006611975532304526,7.849134105918575,6.53931251240061
0.0016974152871195248,6.457828025667565,4.43191833003644
0.047132955815041185,6.240616828997208,7.714655028679642
0.040874362140114605,7.04677664481168,8.4773417685629
0.02456434935459247,7.555443002141632,4.591401934800886
0.03635219058101518,6.40163733607038,4.688016634178073
0.03248749393894709,5.641776356936084,4.205172028342963
0.0301618654606459,7.959386979612722,5.731560442608074
0.030044873000724944,5.724343890711271,5.219086332291067
0.035417583602477355,7.777630206628466,0.7747629088404406
0.02647106489245221,5.5960478512992164,3.1609670608005116
0.03330022162741835,5.074998963223,4.446911513102084
0.013509820682050429,5.196586616704561,3.743788928321349
0.040416240709564816,6.4004316005100375,1.8813937490182175
0.04243756826791462,7.425729778720635,5.78864030864079
0.018691322434803422,7.785907910613213,8.492116655497595
0.03739804319711334,7.335599131597826,5.4871238142446765
0.037689760488885685,5.817597125066658,6.299151468107613
0.02306138262711285,5.119705713453456,7.9735911345636215
0.026259865451603744,5.49387115016229,4.114235447104152
0.03018800249517007,6.607045421207204,0.320300901100653
0.001136179306240176,6.767550669687674,2.1503788943372593
0.007526305128532163,7.705029690896056,7.400168768362013
0.029800665956887115,5.962450769191568,4.466301319921323
0.04587925612975567,5.208389416569313,7.028598592006963
0.017323777393566827,6.030067864084986,2.3162227656394254
0.04023575715321593,6.968645964431256,1.0840726748091178
0.02639692168302841,6.579901191429608,7.636109090424561
0.01840186315170735,7.376128195772098,5.7342811556876585
0.03591981896679177,7.951113805864672,6.486900551055072
0.009284872088589325,7.57291140972583,6.798968085653625
0.00648312200131036,7.1923496778093545,5.142605777203897
0.04677061569868675,5.726942332596592,4.27187215383627
0.023483205523822128,6.663798229730443,0.48033672912572656
0.037492632913909175,7.812267317092828,2.7330368004814707
0.032737954495707565,6.114940005833072,4.657447927431884
0.009750770033202173,5.897454035660248,1.3060243608038657
0.036741993580468944,6.132274492937352,2.4592422614743237
0.017306427892985123,7.461185493604539,4.219195458271995
0.028726207549541218,7.598846941675765,8.913898839324302
0.0012577911550454624,7.162521548353545,1.8730337454006385
0.041996245104329366,6.318642812270812,1.0081132114212
0.026614007877649528,7.674106567718532,5.622106374361449
0.035794269844416776,6.393599680561572,8.744292083089166
0.045980464876209465,7.883875169586425,5.0980755183840785
0.02586516390414851,5.389880995203561,4.198876423263675
0.04715230490622726,7.718696423585895,3.0783554765729724
0.02158907122258183,6.964608772251096,2.231770500400877
0.014384404059583689,5.010598254144683,3.7921911454698307
0.03940841227966681,6.9778017606560265,6.5585110560050905
0.016594383701273818,6.793343871627554,5.300953009227501
0.02731306003916166,5.707515691516072,7.292379873704937
0.035629278183535354,6.856722373145236,7.268573815985024
0.024675168950641032,7.345840278079923,1.1989920017328826
0.002171023815100176,5.077840958988106,5.072624070512451
0.011311909646206382,7.377251093512145,3.246666173155445
0.003127564009635198,7.111233267560926,7.230937794152635
0.03945071323323982,5.076366298075726,2.0556404679381557
0.01516794381925713,7.633271778453967,8.572702851291654
0.04565173894126438,5.370719788211661,9.851113886748339
0.01819567712882314,6.1929792517182864,9.763518738576709
0.015090744637374387,5.886065315861815,6.580391394413522
0.020897096943737523,6.954295055279493,9.588046587600475
0.032372892227827355,6.136128618287524,1.1980167327985336
0.01656349095912696,6.592504922097031,9.706236458847975
0.006063993196194878,7.282438822811531,2.002813196111469
0.008947552982706487,6.769500966656065,4.710894584345969
0.027869769138610574,7.826028380180484,5.970494244928739
0.040143821714151574,5.383671997788508,4.941116740700506
0.007179863365499695,7.411635583676588,5.054527342333389
0.02466460530477769,7.4577542290469765,5.352928959902968
0.04851360667106962,7.39969582481825,6.728295458418402
0.00027011311710297694,6.822749614262847,4.442084798590118
0.03075131455224446,6.631116626671495,3.071938203240656
0.0038347185874597236,7.021914065423357,7.021308417508298
0.0338257756530135,7.997028107597052,4.327303154419621
0.04966707013070354,7.016539401963044,2.0231663909601707
0.049562510032801155,6.49379023796215,6.255930702499368
0.009409113921496522,6.942401356458679,0.97858066831217
0.02804439394961257,6.426483917393477,1.0688240069372112
0.0023292985888988815,7.629871503041937,2.326474348635265
0.0479054848209576,7.310404477883937,4.279998405408135
0.0487451798471876,5.467128101784431,9.138921828853242
0.03503048663578048,5.914047012508793,6.0286341323240125
0.020941151273721675,6.984064325603631,1.6013001611480948
0.0012675867459558399,6.766265122704841,0.24945771073575984
0.020725722438308183,5.301660170267093,6.6579587218400125
0.0337395905943463,5.963166397092989,4.9433834104194805
0.011895729441780007,6.796445632776795,8.819065052229835
0.03821274445524273,5.267897243578593,9.511555265719885
0.038826132164373806,6.788019476658763,7.502733302690422
0.04299581171756803,7.810120714937168,5.572775659033107
0.03531549187550708,6.3755402221986195,5.128594832943525
0.009209362212563122,5.5649284876862115,9.005276650336956
0.020271760829542254,5.045022735463783,5.938362500849089
0.04344492063407614,7.4672880420385095,2.762417793628261
0.012106949439057435,6.282783812590768,4.44861582958196
0.04466810791863475,5.997407093507233,1.3919114098757701
0.045285695848792634,5.378760303871471,1.5935908297621604
0.03659281901969764,5.186688396593599,8.032394954295668
0.02045726465019833,5.95373761983245,8.48657167381816
0.009992363065016158,7.179115335915112,5.111632439882609
0.0389761824143977,5.185538556031391,6.652784058107136
0.015806843791386867,5.622610368530136,6.944190476822606
0.0033424619374242074,5.613906464458959,7.250662437107823
0.01450034078647506,6.605368131095187,5.288014721622737
0.045774090204557374,6.08343141933438,8.586451339528656
0.031055231036447237,5.498801676336649,4.745680755928441
0.03132422500092178,5.918684696320698,0.8739315826580463
0.019102476538176053,5.643160637161067,7.242463658224595
0.029282314805262107,6.257561751068596,0.5297355252475722
0.041356058413482166,5.813737703039161,2.5955974039524863
0.0201234150302765,7.425175131591806,3.3680264545927985
0.018191139950527176,7.337675355886487,2.255912157100668
0.04152321768771119,6.979172162971327,0.8526920371523772
0.04166855306253858,6.836077749495233,2.613275185340579
0.009526596971891272,7.28071497593133,7.745607634138917
0.027685185810312235,7.120508732539989,2.9096162114035073
0.01395165056035021,6.048544814159637,6.740110146195147
0.0017564357748123705,7.8571914868049895,3.080257235749382
0.0035062261507033013,6.401961584396753,0.45609690991453067
0.0486324804109223,6.8680779710425295,5.394567075753153
0.015893452096678962,5.924588072815897,3.247061973092195
0.02415403349407773,7.578358835495026,1.6739183931559065
0.017854913849064524,7.527595213403787,4.071639202634255
0.047607533265846574,6.5464436568291795,1.344479498376241
0.03159376340383654,5.57900649528836,1.8430262921808427
0.021746522724560624,7.845593639535464,6.859704809206605
0.006948052853401616,6.757220355680643,6.767999412916801
0.030314694166901836,7.947664552644584,5.829245391721124
0.028947842658137893,6.458332235494141,3.4582364665399146
0.023289444474093736,5.9741223093042475,7.776734393328368
0.022694922337799794,6.137731586311259,5.719141294420628
0.045355639337034265,5.212348600207399,2.2309199921897904
0.022568695901676924,5.652075178130307,7.5788054699312655
0.014582217807144804,7.7907582445846195,3.6112420783617525
0.0112297189053023,6.686525836543627,0.8131098648199231
0.011511416898588568,6.6407786895015395,5.426207781692824
0.01145983476444819,6.06544044995096,3.063990070431232
0.03912346210908551,5.070110644653659,3.2513920819385502
0.04513434019672257,7.940800473085714,0.09456736491477491
0.014567344320966137,6.4806721567760155,3.4930703840072352
0.0021158860045296215,7.682668938358609,0.2820744598844438
0.013703370825132927,5.728032931113509,3.142564919264912
0.01689303594420699,5.349963725038027,5.9267584330009715
0.0032970393033399884,6.524702813304084,0.22957387422844477
0.04890523268545266,6.811732934230378,0.13256013086549112
0.00380528277069932,5.3805966636032005,6.71915040561167
0.008929092617280138,7.727583733662736,8.247177103281
0.011542887293394272,6.884253243477526,3.426860130632167
0.011022110097990685,5.80866397757028,6.3761645800771936
0.03982378047040154,7.670820448697369,5.122553760854943
0.016348567524983575,7.729078568034325,5.1323388618282815
0.032818857311860135,6.3832461588437965,6.664875767029102
0.044216555999399054,7.468813433505905,3.7992856747844383
0.03175845334929766,6.011380122931058,4.437455482651246
0.03987676043656731,6.268724830370536,8.981058801512683
0.019599543925637248,6.039753750669332,2.2496326896491894
0.03279920989627917,6.977785900774214,1.6608766036965583
0.009246940666170229,7.082480810256183,8.400715999050286
0.005780750318950496,5.907791541931725,6.2485620905768835
0.04891450338140523,5.277527089471517,8.193475518585563
0.03729378665132787,5.666624489889117,4.780816454235901
0.03605593927898471,6.070358400126374,4.641257489422
0.022265929372048528,6.95942924047133,4.658333151886284
0.002626716864569423,7.11145416302347,4.980403658147283
0.0038163040257566897,5.711543944856381,7.04286843518917
0.01899260481370419,6.716289894730517,2.210543909477889
0.03860673227037782,6.325668176981357,9.450529330527637
0.0454589078441022,5.717512620361463,7.580459119718674
0.03793591260495174,6.171856667211335,2.5010935107234356
0.009656914445303878,5.518838794813321,1.4843436489903694
0.0295823056511836,6.07116642066894,8.276906966542569
0.02189415299194866,5.02930245560111,1.7514497230634096
0.002476768281559616,6.83146579987824,6.489931748146317
0.026078750690929242,6.439399050271881,7.571373319286458
0.018429473721423378,5.836697724281885,4.750742579289451
0.016303184373112733,7.14454568449559,6.938420215221074
0.02527801766950859,5.427389459490231,0.8622424562578002
0.011050708521113168,5.341765922983221,6.486560371021575
0.04066739611511203,7.779748033319926,3.2537706825717194
0.01656643839660468,6.734859520964768,8.042838007887099
0.0034872245680892533,7.083106990605735,3.0271069266184094
0.029786119890737713,6.773288380743784,8.276330796165311
0.04595182472352449,7.215331506496531,6.954893993078252
0.0392126959400457,5.8750238067732825,0.17528774111362555
0.022992301586096355,7.9679606099850275,2.9191106600446135
0.04910425930298305,6.445940020693083,2.0331492101617696
0.013006856484528602,5.638142780130706,4.55993572479136
0.03401938605782591,7.893578990770507,7.88179902177888
0.016506303388798372,7.073433186906661,6.485132211357988
0.026994935093086744,7.760961647046749,6.509182032301794
0.0352634809313079,7.150949609101419,3.1093453214010216
0.007574079399966633,6.95052660034235,3.704061839732672
0.029332721144414944,5.476145523003784,3.7677666128028573
0.03310885679631098,5.881264678304509,4.616012154825169
0.012095406899190371,5.222719537986221,7.584607974138851
0.007738812809733909,6.534746271281666,6.2971503493938865
0.018157306806236062,7.74113552735397,3.724596407482421
0.048571622816034755,6.107817577019414,2.928487419690793
0.0018447210959788686,7.378545144133437,4.661655052881606
0.03838413329228676,6.037117343622294,6.375742985516918
0.028309513089875574,5.776088374378492,7.122343506826551
0.004602891515182695,6.89532079352024,8.988776117355563
0.046688341654203575,7.022253948234766,7.618243024755541
0.04526147091589361,5.846163106267,4.294742972498736
0.04245477251888415,6.693144131718194,2.632922796036441
0.03750789017844384,7.035615154013994,1.7074799334386914
0.007675152991299378,7.411711580081773,9.276450090204992
0.02181885287689856,5.013940939450871,1.1629426612035054
0.0379311334032601,6.282984808118368,7.213043901455119
0.00855873916109713,6.184161747369114,9.051103673182775
0.00159662854702175,7.144908308541806,6.467665767306364
0.018923754567347812,6.425147767080735,8.809451724915803
0.03753347739189253,5.25747507946191,4.490767052276454
0.021400184689118446,7.31864894222552,4.814771809072536
0.01894157083015406,5.6085459535680116,7.781326429212703
0.014919517020679491,7.428884919968937,3.2186508934214944
0.04365343002808367,5.607882835357168,9.442397218740151
0.030748090200370455,6.091199657357207,7.3256407572490465
0.022802888412687967,6.436104458719731,2.372354502026549
0.032998868529027635,7.87238952708665,1.3806615430570557
0.04891538588838812,6.53115098884366,3.8167404431167973
0.0192648634424405,6.49869674429175,6.352329375421938
0.02330466368983828,7.455282439773907,3.140085399373022
0.018951026674828442,7.098201458050722,6.005518560536002
0.026129249666101147,6.010045916875672,8.115273559804512
0.01071102600161198,7.079973378280118,9.858746584580532
0.032149845538364995,6.853967539795836,0.7990465181337303
0.02358331394036798,6.123656502846011,9.831005450881287
0.015071455606619988,7.030658739635161,6.750394218964972
0.03176428105002633,7.3767866855121955,4.143875431190054
0.041698501674957665,5.555601765416462,6.2582833226704535
0.01386993469466763,7.757258217906435,9.812881360000315
0.010696404773495366,5.898270484859162,7.983320850233724
0.041740152953401055,5.5443746740754705,0.8801744505387665
0.03395305103181303,5.421998065202599,3.4302730590159083
0.0035541378810338867,7.286263013996416,2.873382433095706
0.0193987969008909,7.67242658292831,1.6507532306293804
0.040646979579415383,5.861333437082035,4.797269933847544
0.022046370460180355,6.7723092838482515,7.699039218858637
0.01190265684920352,7.6217869794723345,2.2764662950909145
0.02623538793349302,6.905826108648047,5.661018087981122
0.023593421528781397,6.223767276244935,5.285856326346874
0.04806464586774817,6.1727238210578435,2.470822933289525
0.01848157272532276,5.454069406542842,5.695823153188426
0.04188993091531767,6.302292677288815,2.7440714954056133
0.03480718071808502,7.548335426187245,7.2267064091071465
0.03469797753864782,6.382489736832834,2.3300582209302165
0.04887975285353512,6.009928874534708,3.487116124447848
0.03157337127365616,6.751996956417173,4.923325481596698
0.046223815977753935,7.531523067872798,6.7647799138997975
0.021126156999340753,5.010749592635285,3.255427124800059
0.00011250032638970842,7.930858207940463,1.8891288342247359
0.008243598908289579,7.805620453670976,0.44660973714390706
0.037599476222411665,5.991286872250989,5.532679452308816
0.005735280586135556,7.368991131267932,9.22074831706302
0.023644270347972757,6.349409759257662,5.838938166848569
0.03454778617801675,5.639367243240425,1.3357695063196229
0.012171174003074126,7.061954770525246,3.1356866710717304
0.03084643585863042,5.4666642974073145,2.844647920733292
0.009537930670562229,5.577022163125788,7.297360064695554
0.016546609269749702,6.76262935152507,9.251725701924263
0.03369832184968045,7.8540110837599695,3.5944782743441053
0.0052906723613935286,6.0657771789577035,3.707846437429112
0.03459558870939668,6.72188019082591,3.839881779468872
0.024148765144763242,5.375585627558452,0.40688206749574407
0.029088116740458504,7.165662402461091,5.339788162603595
0.04981527532412993,7.492709929079741,6.418408545090889
0.004285316575255538,5.482111097402752,3.7125418254544105
0.011346629431182599,7.010514850153652,6.630458705556634
0.009667405273702474,7.06702066100606,5.643387863250725
0.02667937727224263,5.584447613415753,2.762362325596066
0.03906058543320783,7.4568947569102875,0.09149335456061558
0.030740960607243267,5.201534740690413,4.7080579055325655
0.03917837737654642,7.335435238369805,8.07908990199763
0.03844471406231307,7.303272134605493,7.964882424492527
0.02715373831049714,5.095418583819245,7.470410295388393
0.030569529307695423,7.473401370922911,0.02969862271728796
0.02025357915023364,7.551409517305806,6.946959330877071
0.021619663692672944,7.621055885827476,5.721629923370961
0.03950081450115533,6.533791641950523,0.015360238447718055
0.015319955061554764,7.102923914296791,9.437836693146034
0.019575715843390504,6.6406735455594195,7.861738517651359
0.01752183202683924,5.534727878602511,2.673650121796304
0.022516683501728182,7.930758451214464,4.474183375690577
0.014634078516847749,6.546481020663519,9.677991381565313
0.03930901291638584,7.661391117071988,5.323689062983621
0.04215367051083632,6.161975625397924,5.023609201071524
0.022269951499464827,6.809222711797805,5.764908055106202
0.007909220223055775,5.618281033386475,9.388894834086061
0.03203091680951068,5.080523874189279,8.761368518455303
0.043150460191687806,7.833402821314641,8.447819851714204
0.015692552702437346,7.602356149170609,6.442416279342914
0.04720894397295414,6.573874348586352,9.135651490392855
0.013482965610021281,5.910678901008487,9.022431851235162
0.0053555180056532314,6.375000334903285,6.815959420437477
0.03520019533762044,6.262237496641039,2.1003162719254065
0.007227371884451894,7.312596346900708,7.553776251284809
0.019880738054999292,6.782888645931825,9.488589212531943
0.04141900887842678,7.940987710602981,0.3675570376433901
0.00379699705423589,5.162599691835155,5.361442932259106
0.03743333095358648,7.36006794724264,0.7170396910848575
0.043910610531031596,6.979685693279852,2.953402266002808
0.038293945456819474,7.324970788576266,2.5632542145264936
0.02586832631419253,7.398974051629675,5.080361176809591
0.001010989526196482,5.532832599482255,0.935677185705085
0.011734596865112253,5.541534512657987,8.56916933635725
0.02693024734766693,5.677241981687012,1.6896946268470714
0.008367638287505603,6.195917042281093,4.468543686038247
0.0323182538114729,7.457828333745844,8.077986628499914
0.04031668658105906,7.599215868171181,5.810692049252384
0.0006582784925093455,7.725727506836527,5.9030369589145835
0.01881442661164394,6.58322790964818,8.65227301094934
0.013308029565302554,7.293733447048133,7.424227007745618
0.014954573484642115,5.307409569701162,1.6312477080691057
0.009680673805086682,7.866331152747925,0.397293699627459
0.03216706523849241,6.448448039562141,1.0609735375580398
0.019257465001909793,7.066137941197114,5.53866255541709
0.0024666050605939628,6.2153245149860386,2.105405088863482
0.018441553585901382,6.663080895236662,6.031923164430174
0.0060808460291791825,7.493538660160977,5.2372344143339316
0.026157088682093044,5.192835790010336,2.006018675505188
0.025637290866233238,7.218012989916895,1.9769035823662862
0.025674927837568137,6.8801851428610075,2.763317893992231
