0.34039966009532596,488.65904149477376,-283.09879573763845
-0.28143724513287816,-66.51718634358393,-67.73768000569497
0.03807652807879888,264.4821610509049,63.900112582585024
-0.3919666095410321,-163.2446860041271,85.33770077833596
0.37584691554482236,-156.34735501256895,-4.966939659387724
0.2380729206802221,-4.457670164687584,-502.99161837961054
0.685853435659878,129.05419399791438,-146.29195422749163
0.7668753963056691,-34.17535340037565,60.51922719368146
0.4117472395379096,-175.71136878572693,-73.78056456305984
0.8214367951862553,-330.27899545974935,-52.523753129062214
0.04102954850297688,-200.35328185905615,198.80680704564938
1.006605412948968,128.44712586701485,85.6355308394983
-0.2157930063689883,97.94802648522824,45.29846531213442
0.18049545754296847,326.1689248197507,53.4922693153935
0.19671779813993073,32.06920642765822,191.16900122632308
0.3738742199052495,115.25514478821437,148.53475505267187
-0.3013283195865332,235.19488342237946,109.05777951804659
-0.1816210818044452,-110.58813768795275,48.55448675801889
-0.16114785133639298,-49.676642363771286,329.9687450692537
0.8274066708676293,-145.84793071528114,273.9710979442284
-0.24288414514304946,-324.3750855917939,17.557395033992602
0.19325881764602354,295.5960296986594,-116.12043071803365
0.1633391055552056,56.98136541528378,16.12462450941156
0.7959344843152394,8.89471524399132,319.78814745957993
0.7670438321128648,227.9694078359294,106.06908770874533
-0.07415590478694223,91.34299666700383,152.11298111666872
-0.10002698203749177,134.23691468663986,-1.5789447566374928
1.7025177083434089,17.602692095207235,-67.27404450765815
-0.12632142095415394,-96.18490900163809,12.405957044394055
1.0252615349492444,-223.69558883949682,-162.75949322343547
-0.20265509750822625,8.652084683513207,-188.737444619189
0.03805142547650506,-79.30884177827508,-4.82841293988319
-0.028079768265481087,-0.8814516509748533,-194.15162365037241
-0.12931879058527834,-42.82437028339851,144.15251603948636
0.02086059876205823,-152.46527478567776,268.899928985668
-0.03783040624390063,-117.87600064253236,8.425138802327897
0.572424883350094,52.007087549392,73.37547397506306
0.6296782686271094,-118.23054283949695,245.5651591143477
-0.17789565214022712,-94.10238028101544,-82.33940487456864
-0.2794732137699377,282.6008784098987,183.8316823103521
0.08967960573652338,-336.712485735016,-78.50879682583111
-0.3384148099147552,-328.51617346693615,-421.96100718616555
0.1352937366794995,-57.71189306353467,-85.21377807866509
0.01712030065757178,567.0232063648942,13.021821527750344
0.4913701635655599,258.2756358254987,-98.185900058943
0.44233867497364,-167.40769727765422,-11.580942737214448
0.7203546828011844,63.036657988563874,42.329120258856776
-0.12034299795057979,37.24713577670541,-242.01485276556073
-0.21651623418117727,183.70815958804454,123.36878238253479
-0.8666178223108698,-229.90224140244572,76.36417655188156
-0.46531307408589256,-147.95453790459896,57.71134597631365
-0.007735913962525071,129.78750615618065,19.726505379433398
1.0730287231856963,-99.71300244418705,179.32213963822693
-0.5830220912098778,-377.7267717034488,322.6803424510307
0.16098294340251557,-80.05126146910423,6.610743494151704
0.09255460104105773,-212.0082375677434,-138.91571863608678
0.2234538082263706,-48.30990062895257,13.106203057565708
0.24873746654098122,-29.49820155798556,-6.97264225861748
-0.21261980506027484,185.34941178076716,-291.7195969113663
0.3007497276031433,-128.8333378994492,-461.082469719968
-0.02957339460205624,198.1131524248033,87.06597790723232
0.34779466696067984,-20.23729471091717,-39.06924488684867
-0.6548774116599974,290.41837474135394,232.46712592493296
-0.4018761906109098,-60.534798765470086,18.133496896174737
-0.663265726520756,441.42111798033295,-169.55175686316036
0.027374202624878857,-72.42700038675058,211.9431216438076
0.06652471757642778,-116.97082872256661,135.9982401904937
-0.04186085527200076,-85.7103843491293,60.86695846963609
0.8902764080936558,-50.50692110928628,-114.9397385364348
0.09887113667094508,-275.1614936225823,-105.53671928914609
-0.4167753865881681,-265.0328025060518,365.4162163212548
0.5995454265074895,235.1547206435956,-96.34004684215225
1.2208897413842827,231.64342446607483,-324.69886917433814
-0.521870365254117,102.61547094740777,251.48102442598795
0.4896480902566367,287.9610465555943,-220.80517835952844
0.46670257210196026,155.11275730729045,209.1693796742649
-0.4850421322962913,-289.4201150878207,23.260619682372766
0.8852480482254865,-103.09271491497951,249.728401150481
-0.7471513936044105,113.46846180270862,135.30690975811353
0.892983728752377,-188.86247967891777,397.595779858888
0.4249576877013772,127.03719316948508,-157.55480110731477
0.2677362783714276,281.338310582582,-19.962368030064173
1.1755258430075761,-167.9677548158043,278.32881433974813
-0.6807558544517021,-83.65785519308389,620.7855321316639
0.1023079964429901,0.757855543827463,-2.5702658545038846
0.31024581043591803,-255.42170347365504,-212.95963413395071
-0.35682932171992304,256.5184989970658,251.7364945363716
0.6677771132209225,-146.43398040059904,-178.06976470754293
0.2239823608342102,92.55168844628633,-174.8737158611978
0.34763342973846034,-350.47780076830975,-98.82511093012326
0.5853659855316224,-34.31664761389288,142.65365234350685
0.6424478045640023,160.22651169950515,-341.636161453025
0.37309759080049887,186.41823635978056,-108.06493698637756
-0.5476500286053743,4.412294674004572,-156.87796896886647
0.1555420383073153,144.184405556544,3.0928184425257967
0.4542637609535118,498.0059305965744,132.6866662167728
1.3177539465175332,-123.02721378043809,-108.97364465745719
1.358336410209428,-183.33807824375242,6.814478807855467
0.1911936469629637,-313.5187264880183,-176.84665781870544
0.1720278189746694,-80.2824251712898,123.15710234419012
0.36272856484748106,-50.970807387588756,275.13348180927676
-0.28524856458510806,159.22953024997187,-65.24063330524899
-0.4016480483876042,56.44547551626052,-77.91712944024273
-1.0481938105615751,-319.7402063873644,126.53255574539398
-0.03593686001111979,98.6942794816827,-235.73090465446737
1.4090462584953167,196.47753393803092,150.4405141988995
0.8889116974461642,-245.34675248186252,-243.00519900327055
0.08341759030768556,136.4037761151572,-130.79803330835168
0.00653134931474722,-160.93115535882302,-2.1020699569999213
0.803145127415414,-83.60662346515736,168.18005269228067
0.06235998943742252,288.9668987037271,-19.809755235880864
0.16467077317833206,446.3090429698607,33.957452463362856
-0.45537692435862015,100.8670635880142,-12.274561194202738
-0.0036172062174287534,3.4304434605475964,153.255385936096
0.43324071503318207,-273.62311255702247,43.63105384731186
0.5658945737350587,-411.0282641452599,73.50148068608982
-0.10868279881218895,326.3842569071666,21.881128120850175
-0.48467336475610706,252.25932468116326,180.63476351421468
-0.5895257939777965,-147.9901431000775,157.503985187775
0.08263287073802908,-394.91300100486274,-56.36684892290306
0.953496907926507,-131.6157841244098,-180.14067757304954
1.141399173367727,-52.71876351913358,-76.8690421809333
-0.11547212585708916,269.381681303741,-46.81133420852352
-0.11270551927778827,-78.14292805707207,-23.15685008458174
0.299024787728132,227.94130547838566,166.95660459380656
0.3289911946187363,85.0084657337434,-299.53536877934914
-0.2837446481271766,-153.13679114657378,32.971550526231596
-0.29657715523455025,-100.72554209682261,-89.15231086225165
0.8812294570687282,54.92084924654601,150.04789117470884
0.7891475004549351,-541.1049176205944,-180.67603302715273
0.10013721704408243,164.33114009463645,190.5493362731302
0.5169850342092812,-16.448316275608637,-378.05157200860117
-0.6606035893998867,-260.0311209296787,-74.45489857039436
0.1893756867939417,-29.340822255278464,344.0800486046116
0.26849036499715045,-95.50006581928484,-222.56577579103887
-0.6406120667984003,24.251079911108715,302.5202917260941
0.3568896193151263,-144.5748366228323,119.22835281552331
-0.14923472056183923,69.51586538738526,369.6758366320363
1.5004040629084037,77.48052033377965,-134.99292540570374
0.8059838424534203,-14.651839890398325,-12.778721543044108
1.0655051157511244,11.451869507100774,65.04926177900742
-0.33473215789173066,107.09488040032049,-407.13198120042586
-0.5539552109958152,-328.6900732558386,-321.59648851224654
-0.41873941276322274,51.050577385289685,-44.725952986979294
0.7225115106124946,45.2499810085159,67.05204471143523
0.5739881310035219,-133.3389146999689,-66.36098380379508
-0.41962492789814027,-256.53024212302256,56.43956138650793
0.387158244468126,-164.3028604605177,-160.85239036503788
0.17901414058217896,-77.65595241484652,-22.017907764963102
1.3060743555041487,258.2188339959918,-3.886644656885984
0.14486760509102972,343.51638433066836,132.52791333486607
0.18777364378994785,-240.53696808040792,242.6163114476667
0.7305957118021729,102.48275019844651,248.05956047910564
0.20560510191357095,-38.188759901674736,-18.019348396577183
0.2266064919033185,259.64963376251217,64.39967621480403
0.7060421249020798,-226.2307037480193,115.26582695293656
0.14139893802133388,51.63848723841426,-69.21090571487608
-0.08061452769625382,85.86090876839663,163.41136435424522
0.10014839121047674,-397.59215267007744,98.16711752294025
-0.9767395687296885,207.2164225065228,10.204143519092963
0.4299977684027877,-553.6094182467001,-256.3737676553909
-0.6444166736936858,-117.1044096928854,100.81925429622878
-0.15368951701650996,9.970379898874569,63.401699124573874
-0.2303314130640886,-42.32115095703384,-178.9134703780011
-0.06001314021731424,-262.0447487274103,225.706039512064
0.2943863921899446,239.52565944844218,31.440306511613315
0.39457245125810136,297.29395025386594,228.78977543733384
-0.9295885895990383,-213.96015504261365,-77.21044290489546
0.6081588293647535,-140.00196355876716,-89.68420269239229
0.24754867663121435,111.81521403845551,55.83425497454112
0.5202489928625609,-5.231412848300137,-289.4086069258888
0.3064193680653259,-83.69534646376859,-53.59921150733085
0.4526321208557858,438.2673082418931,-488.66971261561804
-0.02019798904618461,47.53152323106251,253.744586296209
0.47457129307872686,6.278244337632263,-320.8416926980479
1.4310179060942188,101.04156262784431,265.71018456326783
-0.21736360787178965,143.89288485357173,-230.53536739823005
0.17834739945792408,-112.30688055951985,79.8352710747034
0.15770575359688752,-513.7026050923805,-19.320277487961803
0.27728613027354354,-82.6236229956478,-158.81211826879388
-1.187908164968706,-314.33741928462535,57.664950621218495
-0.44138331595286634,135.0951921109202,280.11275695666563
0.27140825231729226,-22.793728329624383,-142.14006543888766
-0.10529323682079988,-96.66017966039377,23.963255617082737
0.22307626782735435,-210.68385294557626,-4.192914973636283
0.6524540190871341,-133.0356737276753,-336.3967592433813
0.10935860217192389,255.96301275604438,114.19397054762479
0.4607010978116055,-199.68510990594453,-428.3523152474748
-0.47390035612083864,-15.915066065214544,-219.44681276734747
0.3161279160175976,-155.9330406290875,-115.05754907903946
0.9626912537774219,-18.765573825559294,429.4925153761162
0.13223128097017092,-217.45205754181302,192.42474428524605
0.030092746130412712,-126.26300103406227,17.39464517188661
0.5327426126390521,-128.9389089295832,32.698476808832076
0.15296162913362285,130.0249991541483,-72.33634407337055
0.09848297328912836,-34.32949271072588,70.99138659937768
0.523484522603928,-143.12827010072726,112.47344246640414
0.2525071967314423,-253.53605171954192,14.936583701014733
0.39727346154070053,13.271868466268,-226.07806194609879
0.2239130146876453,382.0970701233104,-153.02154631168048
-0.0832593625164747,-289.7773127246881,-49.449914946185814
-0.05793088329080881,-104.24925037285755,-131.86790060240915
-0.011173973707447521,138.76222699844735,-117.99855517307678
0.19629385387980464,46.02745987486727,-249.85046974636217
0.8593226351485794,-293.05366523431576,-49.46389021711886
0.5052192682692984,23.766167781219004,151.4564563119493
0.7907753683668137,58.15348252246345,-245.20991735455252
0.9248564766932472,-53.11291882805451,314.74514469030856
0.6329645296179103,-409.9803471447866,-190.05147070724945
0.33462657678217034,-1.222656038178733,-14.759828486245224
0.5305877363106617,274.02955744006175,259.8477468307157
-0.9744556527997219,-86.5375609281258,-177.61630654072468
-0.3160902535562932,-407.62364840511384,-256.6188270167475
-0.519892766425742,53.6007398098735,-260.45174778160475
-0.3064429215709216,-97.93339448319561,-116.16252600990944
0.20809197506378307,-42.40081708696765,-33.977668506989325
-0.5160985827804216,-417.76784410562914,-435.2436784774277
1.1906850849595536,-45.2129408187059,-281.1974388318211
0.49448363805262113,291.73063350863174,-340.77213436155887
-0.33835930301299916,16.72330250320725,-101.28384124288914
-0.29924059482162113,53.67029695435915,133.95866258938898
0.26004258225687293,111.07462362432301,-9.321976994968294
0.8614473409250984,-185.32720965160607,-53.26363235763354
0.7950045625198205,12.589787623813473,-7.552471882915893
0.4721150221603623,167.14493655521176,63.111711762948154
-0.15727966518414205,-180.75142045188807,-252.79036416573192
0.11433437787361996,288.50350840286995,39.422726642111876
0.5322675065066302,-449.7529520343093,93.38229262638005
-0.6315054039239871,130.05081368267162,41.892480356817245
0.07564670982937684,-243.3415212193255,-337.1873346335127
-0.6095571875723307,-209.1920329364101,-95.71853740355883
-0.14243932920868108,-170.08461831025406,-271.67846008469166
-0.533463697674275,169.63400912099144,-96.14625336898015
0.31074162810216144,179.8489231463121,9.91096024481196
1.0445170956042742,-201.07851151482419,197.2620252241327
-0.22911514127762034,278.41111229045566,234.52839413707193
-0.9810060978259629,-164.4066719269798,162.07523570149533
0.6666196424179336,182.88182777118115,-78.70198122292891
-0.18638215250983647,81.02985053500937,-192.33883544918996
1.005120256410732,16.81958869625591,289.68287027943205
-0.7768072235198045,-185.25399032114024,62.1796721428746
-0.48128341809123815,-210.87838198445158,-101.96287852180974
-0.7206812198175483,76.57215641614836,213.73106940587135
0.6530009051195522,-129.51620895537863,29.086242366772797
-0.8954925282732809,-210.22843631371018,-515.3798357669292
-0.11466727334502752,-285.5989398929605,15.84255482610013
-0.27431596116977974,227.23282674522443,-128.22588425899625
0.49066020298838053,139.88039559217205,19.69565059483383
-0.5293740247571987,-327.16653980790056,-115.53009423866227
0.14852969069539934,128.19838925591606,101.28181409710206
0.6099671764496264,-70.62287907929536,85.17776266116489
-0.019047583785491373,-47.6762447304477,331.6899599796863
-0.17744136169715885,-104.06860948769108,-173.34746587550848
1.2301136975643054,372.4502368317297,16.619817459164228
-0.4435871222285976,192.4785885575746,-18.57093922725982
1.416440557873099,-68.8811302701951,203.28973854564066
0.5691386710505822,-334.6697002579217,-27.108014445959395
0.6182992952542566,170.39616902838705,373.6699311339529
-0.0010306308262215125,-98.20230313924154,44.90439095603057
0.3454844072902585,-243.0333682448648,112.05440266351614
0.5827809103751573,-89.49985379251483,-42.39791813764946
-0.02048775975714323,113.33941051223269,202.32056791746948
-0.02021211668064843,-300.30892885823926,-106.20415111489771
-0.31741055522367817,496.07979258160844,-117.70989570296769
0.6622650299330242,-67.01021431986635,-137.0157758383622
-0.2544587761934285,12.214536158176575,-81.11950152971828
-1.151931064691139,78.2989591240515,238.51544793998443
-0.05226220700451456,37.52606025192598,240.8808154152771
-0.4105760464696449,-23.887736422550248,-300.1935927670338
-0.12333918917107639,-243.05589231746384,-170.8047358612145
0.13828301635742163,51.437494235734995,-331.3475557864493
0.49387321066559486,429.9955838594272,266.1371754080264
0.3355165522263137,174.30337132897824,98.10986663340061
-0.19872992927748429,8.044819689247394,261.5964695055943
-0.6295712947647993,184.85186424439155,-11.111989337853853
-0.30173126931151545,23.991706287912105,-490.1023440883269
0.47877760142300374,-98.90115086822905,-126.5164749530921
0.0876725672132318,-32.30279486883771,258.1776724154828
0.7318414716642243,-53.73298026385554,-62.40394722931718
0.8545717005805114,-60.501038053932156,193.25012356650944
0.13698270124651535,-31.332823618865635,-131.48940737704555
0.2684785607587267,-181.844390057975,-150.6216606471719
-0.5767112280238553,-178.03796460642906,4.197768361286869
-0.2960079936749481,-230.58813079146373,-514.3972852025414
-0.29434238434778764,-299.2168299843989,116.49828252446343
-0.06370972401415986,26.20841443518832,292.4601969646129
-0.05072375561490372,314.77226738696606,90.65807988676575
0.014488392048661342,112.26215525188654,87.82712985275576
0.2081254052363692,116.44833135706097,76.40969078753132
0.5767087717074073,41.49486875867341,-365.68915928800646
-0.45605922302792495,442.2740927965611,-285.9581261368345
-0.26932618060781627,7.534613596838654,319.53513023716687
-0.6540247790469158,-40.594945584630885,26.817722365475856
0.17138439528405794,-104.42484986433101,-221.3829849030042
0.16638395148615043,-104.6835138466313,-217.44974303666478
-0.0702275820672526,155.74840869458777,-92.88872531367059
-0.43120964695059444,238.8907990798418,145.83101455661262
-0.36787239929860854,606.1522928584648,582.5253440024155
0.345881415912013,-70.2418471411207,229.3408837180945
0.8195655918279636,324.4584269661437,-97.39639154854667
-0.43165549634428774,292.3471231258727,104.78127933122596
0.42889137141203826,141.41390284030527,91.74454004661024
0.5208111636497902,-262.2528096367672,-206.03551434615147
0.24241816692199106,399.4194337216244,22.457857163544066
-0.09134704000327837,223.19374445304913,-54.177499680386134
1.235539722247135,70.8207091341484,56.853170103429875
-0.7105370426364048,18.05193799187989,238.5078883855758
-0.06982573767579076,50.264215238878904,131.7029046732251
0.12970692611082624,109.69699521549974,-187.76607905797937
-0.04052779469228421,402.3491587969948,85.97896713830842
0.6640515150580214,-297.8347856360529,64.95182278169557
0.6950079100381445,313.25909044202575,-17.244496593467755
-0.4415161289259824,-200.31610992721815,-221.50866663639297
1.152715310776439,113.94535579977656,197.02861056151892
-0.09164331997438202,210.35938481655884,-126.3373659107674
-0.006759585945247892,35.976758793130756,589.6307972107035
-0.5310290588080238,-61.539077527261234,229.8584588185863
-0.07427422400016426,132.48668124761065,60.67550408065946
0.5478345272213028,-95.32592286269033,-397.8450154501147
0.33323992410387926,111.26121292114834,269.0630343150285
0.7559999308153733,47.547091102196774,61.63012840371863
0.31062208725455753,45.624458193963555,-34.74518606314708
-0.0892476185268638,-66.76460197551468,136.9187952153198
0.32640022263548896,4.765433499524834,-20.348199200382748
-0.36328045246179536,-164.39146996465465,-221.12656593130836
-0.2273572292116292,-42.84667974422368,28.795529825711697
0.621412419622642,-24.413536504073804,-21.723824959226164
0.740655414226332,-63.31743168095561,202.66324004859592
-0.30937822211605587,-224.4965756908488,31.808959815433823
-0.35802426093799505,115.69181844478544,125.37707589892302
0.3207785388434855,-85.5130235296654,-192.57076489046793
1.0150517920245958,89.02043495583358,37.811647967535805
-0.07363682097088864,269.39861009899926,357.749477701481
0.36928368088234165,202.89548138827763,-4.59361657034651
-0.38639440926854735,-127.35233182194963,-93.00211657529533
0.3325115901656268,-112.7140384324154,4.687490117369391
-0.0339091085475722,4.488142805357027,53.1810777837247
-0.0691371390355986,-95.1539823404665,97.28170589857771
-0.03404709372380074,-7.134347115970642,-5.204734939464454
0.6539799698125887,-150.63667488278892,-167.12777432380614
0.3728750563754286,-548.2012058937928,-130.7615923804568
0.2785163501098415,-182.49352975111927,-35.91343617634923
0.9406059771249402,46.74213462373133,-261.1943786669409
-0.3172683349894751,156.00467686277872,311.66467326710557
0.1364989932102974,83.71158099768228,134.359975371815
-1.0985307032946419,-113.75111051597449,186.47117312063784
-0.3220873976406083,-90.99757578539786,-454.8959786407738
0.8351580606502214,224.97599415291828,40.80884659706152
0.06258438438816605,-78.04886523305146,-308.4680109741897
0.466414758919465,109.27735272076977,429.8937181944903
-0.00256812419771954,-12.218668613790944,86.27416418507828
-0.9905238195252288,-182.7933024690013,-111.77216444447409
-0.32577613096593167,125.80767839245321,92.63189509341989
0.4641275224449758,-23.591402063061896,87.44172683738354
-0.027520779100669884,-411.5232619648033,-284.2932844524333
-0.2759526101921715,-173.51870665080838,89.15864671362134
0.30844740396028547,-29.04988517786176,95.21298038930843
-0.9232791667797593,-45.50082447214195,309.2880095807165
0.14690473758776493,-17.114172836832278,246.32660599332928
0.3040181764699503,-346.1870553053648,-163.56002514170564
0.014399553594129089,313.5121694710135,-84.60791594964577
1.203979408022176,-46.34466257706518,-183.75130889387768
0.17095870969985416,208.61433395136046,99.7270185326319
0.11653641000358025,27.351881690314674,-412.0730350279369
-0.08734340159945875,-125.75939429014487,173.67358190263786
-0.0813191317908219,-134.81766611362355,39.32531085941902
1.2498681375725598,-298.61524752975134,157.84667339642274
-1.1916745023430309,-13.99760139321155,149.3518660952883
0.9530038217761803,-136.59235227233532,-96.92494776513217
1.1619413718925795,-460.4618079105805,-97.91296989223424
0.17967153950219109,167.78365343562044,95.54374798833788
0.364283857690201,-139.91594823197718,-284.386544922971
0.15202326877927233,-446.6826075428622,-261.9323710424985
0.4457245395214061,-85.14281330610555,-108.32827439584011
0.26800800873076036,121.8357735692994,-235.9360256406211
0.022342630702135158,70.89298278452848,-379.7654423556667
0.040447525537400136,-90.40160939937896,4.898197533105568
-0.33393945870121516,-10.836615058412132,-178.74901742336965
0.3207857405327588,-113.1258524021411,183.62257970766711
0.44420407996277744,12.013802033565153,45.219679334093435
-0.21570623317920928,184.31134549728776,-145.17982279666091
0.7127847430198826,-235.53965258917282,73.55023843046052
0.5820922168570286,368.81015335700005,3.189150488240771
0.11011401429555237,-254.89715700572035,112.27117354016443
0.022402617637037214,66.38262804974921,-87.61789414007616
-0.1071277282723016,-191.7969288589936,60.72609843289726
0.4563831154476012,-50.725574746368885,16.083725812366577
0.05467539922204573,-184.33759353355273,-141.44916321313812
0.4213148662509873,-237.88723986881294,148.03688765626663
-0.5989086745284453,-245.43479797247892,5.347040078792655
-0.6159320195997833,-45.538389083774085,-31.586128966680434
0.6498864384414254,-29.203310347691975,-17.73109642086488
-0.3209472856972972,225.67975450655842,-351.96746827917354
0.010983709931916302,-277.88986533891153,144.73511473903568
-0.198454765745611,387.82141681591213,-195.78134934514867
0.03405419964727038,140.28971468492685,-298.74499420612904
0.9958129938498299,251.16731496738,-198.62479237170916
-0.14705419536533854,86.81532298792145,-136.60245414752455
0.3853535595616143,80.5663759681475,-79.1702126559449
-0.21555049649467417,267.2535034190287,156.75793991209372
-0.8751032101132559,-0.5599537361928566,24.817144875636743
-0.4601371972399965,64.46067774315509,28.31105586500589
-0.28217174651688204,-78.89009024567764,120.53032694200043
0.19367285802715892,118.54995189960276,-342.2143567953119
0.39291308391184426,96.11894112666339,126.40110402978397
0.2599615374203973,-51.21546265038638,-172.3663884917659
0.6414581497947319,156.93549115130853,246.18712772172717
-0.5462169621857205,174.50871861600325,10.52382138676596
-0.4014828792446296,713.8886698401544,87.7275942467313
0.8596116937402105,7.878185582484143,185.42323817111264
0.8774507032803898,13.191454231212882,62.17019649811616
1.0902840803203846,-178.20760124624985,-130.21034656253084
-0.012532385917269961,-147.0268570697334,-255.41205983511753
-0.022166222599880325,-270.11785274570855,299.6620017495919
0.5623350176133759,26.949640309058136,-306.597542553902
-0.12670120274407715,211.20144256507416,52.52388399645762
1.1999798036703857,-226.71082089136175,-207.71141560807735
-1.1563755081003364,-44.072995276150706,92.68083278515049
0.24479585504988557,121.4625940484916,175.4599992603231
-0.8170702551249831,-158.81048294440902,-54.785245667997465
0.8497072375424946,263.97124424810687,-276.8588723585754
0.19079121234626759,-243.87544483361262,-88.30732658760459
-0.30731651950198674,92.10464579811878,10.333897978146675
-0.015403615395530229,-446.5731027984476,-30.64157443859682
0.42871810119554465,-174.0543867895861,96.1477592810905
0.46118043613614845,204.70538722846817,190.17195822398793
0.3540915609152123,-273.4160130255247,-316.92439663584116
0.6665875310594394,84.7734090480652,417.30090741151196
-0.23357282710064348,0.09105182887301193,-166.61185150788233
-0.2087937131371534,-24.743857274984375,-157.9567966342089
0.44729787452651126,-177.90109532726223,-136.04711119151298
0.11199892354331842,12.597539473855567,-110.90913614581667
0.15699544219509617,39.15817969224293,-50.16229958463574
0.3203694373349873,-32.735971765418334,-186.98445799995667
-0.546254513513015,126.12123942273831,-33.51616593621635
-0.08339508396318657,-460.0728053585837,-53.97473810846187
0.027459150788708003,140.53933880083713,-89.83083718523795
0.03758546040026481,-111.06475849773383,40.66276589289487
-0.4187005690810202,-9.467231107092637,-45.57958971331002
0.3391201528390584,97.74028568837679,290.3092777232732
0.46187012667074157,-331.9720711096801,-67.4883276039272
0.48189272337978833,32.6614805462895,-247.20600192040516
0.12849675052196663,-56.998946579329726,298.2629284387168
0.09115713684590254,226.24991418005789,-259.99971708905935
0.012285275099985643,-178.4292517991552,-362.9218268858319
0.048384757248174426,-177.88421368099557,365.06700296275216
-0.1720780974888313,-338.42717697088256,243.35219587125724
0.13541839447617915,-273.1105822029584,257.16395072097873
0.7246926492990284,174.3140354154918,-609.2682709899825
0.13041417454231244,2.8004293891486234,81.51929953472732
0.14467962673429252,-27.62904651244476,57.232217894452674
0.5093467066283851,-116.64845649792821,250.2118460861679
-0.7635095072143445,-325.61811454764813,-277.84436929992194
0.26076604190365027,-257.55736793263065,-224.6222523736539
0.041879179358516566,-3.4515749809116816,-19.706750223721265
0.8224711527303625,73.33792971341279,193.91469336228838
0.11707949374115365,39.15953729510124,315.34657473338063
0.8879043783263798,-271.6321148863381,-177.87984527903666
-0.2516248808333709,-175.96537016581004,-9.012871069859811
-0.005566336000788791,159.74039797694124,-61.55243453068897
1.1792400906557008,-285.1293036585098,-49.67343363282687
0.30942724875600564,172.04412521480825,314.739970329634
-0.626759132349306,-48.088539534291876,6.676505002796083
-0.23899323047751325,386.2111236886136,111.26725931120876
0.2416434885625577,47.74549464788699,-5.488051814175806
-0.3685541545070437,-103.63276429533916,-58.027338371317114
-0.10863955948567577,363.3808574648204,340.6616573108178
0.064236887002429,-376.557717970481,-387.1247986264112
0.5056042174038208,351.65602494185754,123.54111097343431
0.3445276155915924,214.0190866180211,-167.38741094151726
-0.14780609625459357,261.1727978582934,181.73949525384785
0.3954761478604839,232.94822765958628,-239.7750199857071
0.6150233158604939,89.33451255412285,54.363921191314915
0.8890961338649426,-80.41816647494436,-20.615857406964167
-0.003035826603087821,131.36974254020436,-102.70774859725604
0.03894160103769376,-131.58374105297074,48.45790055103441
0.44931548299515117,-128.75388021624684,89.23808837351265
0.7543715978480041,-79.3806563632933,265.8888912055831
0.3112724414171762,-125.88709587849173,316.24982837528523
0.3784184988109846,-299.40735273959086,-337.9848507933863
0.6891234999932585,185.00286871274113,116.99355531475346
-0.21322596595901638,262.3220061970027,-4.779225530997177
0.440250753784905,403.20420160291724,75.01574289248147
0.10309327830622383,30.68373049853675,-230.63652735102102
0.6506802448493542,-336.87427460964005,39.82580619491996
-0.3722519520528819,-130.05280318464693,-183.12869009024888
0.040673532917512356,156.16263593092623,-191.28473907674314
0.5745288699045268,-207.99692472705465,30.93393794408761
0.21211169042676306,-54.10094711921391,164.83920302542768
0.5509914625246548,206.10098693752877,-482.5381630967709
-0.20249410005284052,55.42407400474424,-389.1210654742737
-0.7789324075271622,157.4057471002928,130.74717208097707
0.1463437201350536,89.37328235090443,-9.712972993371514
0.46886882759177334,68.50533351935921,-91.25382106404093
-0.5066088029597235,-91.29668690961259,-15.55015252103157
0.36273503811648666,-230.36785246611223,580.0466194990286
-0.4336491202758154,129.7770368460136,-95.02810239543123
0.050648869760237414,189.7858165314521,275.4756700766566
1.112461258370163,411.70966795755464,-355.42041906593687
0.3094316198372705,14.529662702151372,-182.3815456936396
-0.09792841904958405,280.7511936070689,-162.98472759529
-0.023274861221999815,265.3634627504455,-43.39698190105497
-0.1510189318643415,-233.726606818345,-126.94833666177534
1.5354935740604532,91.84746112542568,111.296537428806
-0.09025050141554258,22.428671797299625,-87.89638221746664
-0.08320174517105888,-106.37238820546094,136.75426688452396
0.02258574811296163,-55.29643021715428,85.9930911991448
0.9665201135741723,-255.67699427258583,223.41660968740936
0.4108903770687179,-74.97164329001465,116.94194260685916
0.06567680180186475,218.78370152435056,-142.4648010511122
1.056655732700442,-241.88613459234153,163.93469945072806
-0.4535477198835543,-534.0717882932569,-145.786358107578
0.5129542538564968,282.1525891986094,357.25169515602516
0.6341331468400069,63.83839875671657,-369.9496002515705
0.38519910126528867,-239.2783224550434,83.58482674180858
-0.001655931640882291,118.17563246743357,108.10196674141875
1.5411980547960626,13.860562570209053,375.7625001859961
0.4821717870040355,-66.89689123302226,237.90185934417315
0.1966808129998356,-13.696901718018475,110.95519094475772
0.09484077687257803,174.05322674751403,-48.28584216160387
0.4598653568302885,16.157198086223346,-149.7277757049631
-0.4623159982297645,-478.0170605890386,68.96632528240647
-0.5506549128575113,165.58866238740964,187.74527143787165
0.61066677597881,255.20408853558027,-124.71217297936337
0.0661998948035307,29.34986776396988,62.10513928290771
-0.24654811987607972,340.173124132627,-73.94697231212024
0.12153141921291483,230.75087715748484,456.30519101688424
-0.007076825773246559,31.85887067416339,311.2361836284664
-0.7808977420185221,-19.40925526003079,360.82979593115823
0.27395182107887417,189.79922596104498,89.9042812594237
-0.16904920245984145,61.77687416096676,222.03609484159253
0.7738443770908501,169.43327368698348,-45.486689801550106
-0.5378031812625685,-41.41733489878842,85.50158830843851
-0.31884060996315783,161.71115042135344,290.8611684605066
0.043011263910692266,158.8372767672135,218.5602489327615
-0.348067316152552,63.75051166340043,238.63447046648994
0.9671085616914061,-51.723650664945495,-343.5209285130223
0.1492344417202653,94.71909104579552,-156.0484515330367
0.17713247884046468,180.90374631054638,166.73633166641258
0.7255062930679212,-77.13397507645927,-73.56307809710938
-0.0495187825051015,13.420875059316018,-191.75560341543033
0.2866886201757125,-55.17794815237651,-98.30237466763124
-0.5662223259399632,276.3847102000011,148.78297869226964
0.02003960646664052,-276.9010957502495,236.02177868533025
-0.12616470331526197,32.88269525356562,83.91627340073752
0.5782082175259944,-127.13660264383755,-53.036599231052364
-0.5013242722771147,195.34762981232782,-295.48505478637696
0.23050627573761132,-151.07872422050522,40.86955869874364
-0.21470031727438993,542.0126449607241,-7.759048799551921
0.403695091189059,-43.29524265322464,190.9461003494226
0.36045631854986326,249.49174229554677,-66.30809193910204
0.6173402591962455,-204.39826757889142,179.61532354851036
0.7051106346343028,-213.96977389700044,-190.23875065970643
0.8775164559518369,-55.605582617836205,245.3283430873289
-0.40449586826314315,67.22777071785546,-155.8635757517262
0.31387437294112625,200.02303152766058,-135.08623790370288
-0.6157072958070711,-185.67180128416564,306.23909250571205
0.38974785150409064,10.802418012177311,-70.82645173427852
0.28274391087318584,-11.781455294631641,-168.0781313491008
0.18474236116566328,-93.73770689468273,58.48196039041598
-0.5310428120222648,176.21338153875897,-142.97557353730357
-0.18513654545192892,184.3629679022432,69.94529852055203
-0.9480464270879041,232.4309780808921,-138.27198859044086
0.501637262191492,-331.6380580936756,-318.3543707023281
0.845999639410624,48.48603279154722,375.7939508874966
-0.22010186343351756,-34.15889388681975,151.1832193644773
0.5297208867380354,157.5497766451045,-101.0601347252219
0.30593341649552575,128.21594632809968,121.25763588848268
0.5791495661990541,185.55158366278206,-238.83869627261873
0.3055202222885828,-45.576943781487316,-400.6701809923808
-0.22459507256880928,-21.359886889675508,-276.25771768618426
0.2270939820795659,131.62950271691,359.90361362891895
0.8360716083900257,136.3900750077862,316.2466254647042
0.4040732266330019,-251.80363465393657,-131.0499848184815
-0.5432715683129083,57.33389960889013,-176.68427889491326
0.3293012031203704,56.74013906821019,155.3607709745267
1.1438653148289968,266.4428453364179,-90.5937302728966
0.3547037848269843,-163.41249610458246,-121.36762434378731
-0.03670338735068154,-116.26182873984543,46.39776012763035
-0.11599800413843353,-217.83825308452697,25.631129224799693
0.35575593929031446,-285.011889309176,111.94691915424049
-0.2235483485685626,-231.87925166937484,84.35479813702567
-0.0685010740772864,-209.29141591566682,142.012541914545
0.4748957284276276,100.22906770625141,144.66097937253275
1.2459892588025168,51.110731224115014,-32.99537802108703
0.23298717735433727,-123.46082154820897,455.8201955289836
0.9133847861967443,-189.8091534607516,183.1137593442336
0.3605093305571915,-231.26042951559324,69.34799786399162
0.8443780960934681,79.93434356818982,75.66014447072764
0.4906859221101867,46.56450730498668,-131.38421485625585
0.015507832336450117,171.8428012083644,484.2476220719105
-0.4474541138427774,447.5116241662188,-157.81237911526785
-1.3525030337372723,-211.47114559647687,-326.6591635796354
-0.21613239384402555,126.37355440829204,-75.48955545140778
0.10569839213074107,-260.53132371886403,228.41024937733238
1.056931668245835,-38.249499777113996,234.0621050872539
0.11786262588381549,-82.88990103441905,252.23467935663803
0.6702462177911794,86.5216175215663,-8.760274986079148
-0.4137162220553077,137.64745357550976,-22.408601704574366
0.364994722896236,-58.18920392592799,75.52133790410298
0.6539763555161526,-84.29641681269585,119.20987398891796
0.7619155089720213,-232.39817961773838,-179.16699990789752
0.3558646526559712,-297.5153442756165,-0.203358344448271
1.5557868663440604,-168.92705582448372,-67.2094546805062
0.21620804439054722,-13.277721752540206,-8.375457096291065
0.10099965381387618,-282.33135487671615,366.681511294238
-0.06079779972999133,-20.172827856499936,166.307590280014
0.18551576108674736,-575.3709622973095,251.92872324174743
0.40760641387646346,-120.48551416543441,112.95866903214664
1.3552409718132425,-338.0538217139375,13.92446766410425
0.48324874144927166,3.2444175031923788,-85.81763638053316
0.8946601474567086,183.59413056475742,-124.41579159660236
0.5665324496568442,101.93520743086329,139.27899253761478
0.35484881752412817,40.34129681453401,-216.28668307817063
0.08905205724225804,219.96256001231086,-71.86627037375392
-0.29519674313848593,-88.9054483524238,120.36100573924318
0.08512773523594046,326.3772905775517,35.98427852714379
-0.10818856057604415,225.35615675931447,213.60938027079732
-1.1772868071082978,-41.7536196544984,54.124742197346684
-0.2963389129718188,18.288897570081392,171.7963468795776
0.35621991983743706,197.4084029344243,198.53097418666698
0.2535016421545019,252.85301166748906,97.70066921039324
-0.009456458967312648,-172.9541475128101,-122.89216484292669
-0.49840813415640955,429.7148752301603,107.80183647499008
0.2859140654365592,-252.66767405710308,-323.2692166736211
0.13210336826842042,-207.06978497630212,128.7847058423955
0.7190535988584574,303.07075792379817,240.23890303210425
0.9712445914184489,-407.96702988802264,186.00790572170112
0.008370392767611395,193.76966137993458,-54.325766642546135
0.3012033186959952,-51.72228845155892,-113.03140625397181
0.490476366235349,22.65287912534418,135.7157861474937
-0.03611790324720446,-229.83133508036562,-256.3363941797318
-0.006308350037058569,193.01350359178846,-143.49153707884753
0.21608073017772472,-62.523078330745044,173.41779315922741
0.08798730049891099,202.22369323798438,-36.96372562088467
0.6154272017740818,79.08516559667945,-179.46086823172496
-0.06005571873192206,136.737696622967,-217.92728609608366
-0.19574758960413963,-186.50506265954593,-326.9067888445419
-0.037176848859266504,90.49769980900699,104.04677810975802
-0.26114870126314377,-207.2811494913914,132.71425814326153
0.08716692056043629,7.796227874183121,-87.97338873738711
-0.3818486297231946,-160.67911059622597,40.839126300978876
-0.21923474280338962,222.7662418923488,-124.35184850536672
-0.03805080666347674,344.44220807348216,-192.5586165808039
-0.4196376322656629,11.19274548054872,-244.9484156996744
-0.3217166512894581,6.403359369336728,123.54039655262542
-1.2506442311754995,-212.12466726196007,66.07258943404422
-0.05083805094442728,-132.99616083522952,-162.0802107428455
-1.218512593526781,68.28534536452085,-103.5482071143049
0.08040551785629971,269.16699639273776,300.08316167080295
-0.5472122623231708,-243.3328617371675,352.3423038237897
-0.2724438886671888,232.65308329238158,-28.164129744792998
0.4834506315663043,-23.367640051542246,-189.92891993111272
0.12489679832423434,-205.15178613109325,82.16013996797186
0.5889010845682233,470.8405482796582,-50.941177295599815
0.09089913487588355,93.569562074039,-75.51171888173972
-0.7040963878503728,89.98268714618362,184.45178796358869
-0.14820130162378414,-20.87783317035941,-83.4786370177859
0.49398560522838186,100.57605215659527,-61.86026754132581
0.736437382361212,-14.593819617617445,138.03963503203462
0.23054986800407104,-73.37314731908282,18.0997666423388
0.1383898167324401,120.75700018791386,17.876524517255973
-0.006625528575464751,180.86891770898305,-78.7489456249284
0.6070352565193482,-293.4507029571576,86.26792163315146
0.18300600913232104,135.31792489295157,223.18239264205295
0.8842150945638905,153.90586164098903,293.218290566214
0.7694868993056656,77.44043469341226,-193.62760798449978
0.5397166994822682,134.948314178304,21.03375942308965
0.3772358635249313,-57.1214401365131,169.22196256606657
1.135319436999499,113.7580483524189,117.64008564150743
-1.1154873451648264,39.27198517098402,302.78346875777464
0.5190892652374655,-94.29599179649783,-83.47453831327411
0.032365416577137124,-24.497292423583676,-32.515914531710685
0.08075992268684838,-69.44353143845169,35.187417142630714
0.603248229509054,-18.884672524118667,-226.48501366714058
1.3054969881969154,-115.55881171500182,24.733370066105863
-0.18622512141783892,53.03420213036452,-48.951095491869765
0.1419829372307366,-115.32823547548941,-428.6801677377709
0.7606019669637698,153.40183611857262,-136.66656366429376
0.2863305993718174,-384.8805334973628,-109.35768433096528
0.30162444495678,-41.1319900687412,-328.4486132060433
0.3584943114273667,-15.71318214748836,121.96143056362152
0.7116576140318356,243.17447285963908,-104.31009672181777
-0.18602260415494293,100.27425466956086,36.10199421251601
-0.49448793958865395,-144.6645762356771,157.1245585909818
0.6345323438019217,183.31871339965343,-49.15181193604386
-0.315328671047226,190.0129140747705,243.83160996998288
0.13196432964721536,-198.38524295061288,251.02780917529844
0.17817193148629995,36.589277659371064,190.76669074974913
0.6357218030916028,1.9656844864232845,-122.19836891085242
0.6524092179337491,-144.504713647238,-14.510841602189162
0.8831469069388806,-90.76344338633217,57.312562726798035
-0.2794154560662231,197.27173239508232,-400.5430331662912
0.8875077308217632,-91.41593773958466,-92.85501696855518
0.39716251572179456,-281.37642618456874,-331.9221208341358
0.33225555875327717,-375.9140194108821,-65.95586763373838
0.9485915375323433,-6.911266006029614,-554.7898383169613
-0.2676765513414252,84.35148784927321,159.42964069427518
0.6805442310591754,-105.73575850617286,245.81834228870153
0.07076817630609539,-136.0005597619797,-29.751176941071073
-0.1409018166635752,-18.210669500572298,-80.59469093138651
-0.46380605011743375,9.294903109022288,138.6236040105977
-0.034068033831990446,179.24526432930585,-84.19682081167532
0.6341030706794075,170.8276976575161,175.1921280516636
-0.44063006586596193,347.89983269565465,-275.3423747495722
-0.10097565345041914,136.1273885006298,-306.6285856716609
0.4360165548359094,146.90504628847924,151.63435356368169
0.7047785094696055,-63.06426980818271,116.04186075131327
0.5500552840353534,-125.75929497097246,125.8509906636618
0.45054928103343717,127.93992231064419,200.06009799149717
-0.8309667766121498,7.704705783354923,165.96839003434172
0.5463736580400593,-326.0796417762015,87.52871061212495
-0.09458055836754048,-96.69152930653645,-318.2772427842442
0.6107681847171589,-2.994451775270145,38.7982522108889
0.8935112027690733,-110.94239452651004,417.46936604962065
0.8887589924995856,44.84483741386749,197.0892234254141
0.16779224556022623,-12.833533378261924,-128.59148007040673
0.25939109870778093,-21.911157458083846,151.9573991208391
0.2827675275355088,134.77319810065907,60.876545798970405
-0.19724756288269601,311.68458266768033,75.28737110929053
0.33589813020675313,-136.7528650078876,-49.43390857243653
0.4095081810119082,-95.0851763572025,-154.77208734691553
0.1615726558845817,2.92292944914215,-245.73452681916282
-0.16376280626930156,120.1295962897837,110.61237439019986
-0.36960064897127193,96.76318324433781,-1.708978944377127
-0.22286860707223694,14.134527998085625,-22.72047952467887
0.1120416080786459,236.53130184762284,-75.19262769882023
0.32997058840347016,37.46198341278899,190.4180152660902
0.014635567871279231,29.780101397817038,28.586659839997147
0.7446134516778598,235.1578641986141,144.15625163084295
-0.10756934146010089,-28.853867201655248,-375.35609930079767
0.31475402260149804,-15.12677409262699,280.17989374977293
-0.2659462701869675,-159.63482042280043,-89.3826198697105
-0.17813479774024826,-153.77989142643628,-280.6402292368779
0.7933409490651648,-7.164676784402986,83.58358329474476
0.19132921364150307,198.2778717443159,127.64406733531197
-0.31333367631907155,108.91757577261775,-71.10015861146871
-0.26686828875836516,135.32295952983034,334.5521216984017
0.17332760169507708,-256.92281625122797,236.0484157016889
-0.11148812918021678,83.10449747142758,393.0577719309551
-0.20107964525879402,144.0677349917991,-16.246331671499625
0.7848642769587115,91.90740572214952,-114.91145123279163
0.6246922826894158,414.215692986198,2.459642154123881
0.31669176788279896,59.17383388664047,82.99362784652651
0.24380930315106447,-220.03551058614664,341.60824919744994
0.49243408560180363,-28.64446486092289,67.61139592893484
0.00018055244946307836,-38.376659688081254,-9.160994759973626
-0.23448592220827585,-298.39136161511465,-29.80456710703967
-0.39465137070426576,-132.26386236206417,308.45332952494175
0.1692854081892398,-359.9646683618595,-276.658663637208
0.3133519722362404,-250.94453070062684,327.9815359094827
0.047547019995377415,-204.82973386185031,214.50746138894777
1.6090899169781625,179.9055737999773,-298.61737887788996
-0.3128351736375405,-275.69644995408754,116.81941687208179
0.49389213641532037,116.85216007223835,273.21874177659754
0.45106172182858234,31.061872708907508,-392.4966198032174
0.04142317504809065,303.9324454159869,-261.61407814529133
-0.3323116962479182,-126.79556228153753,-102.33562456000169
0.23478371540218215,-41.486919708725836,-110.35664981869652
0.5953202517327054,-25.349703798732875,-369.8327318980002
-0.0726014960061585,14.147700998295393,316.7183847506758
0.05429183665336079,-278.9774111186461,-199.368762183765
0.25457688720717286,443.41272145572833,-153.35985682076688
0.6793450993926345,113.53078004907174,23.908485320038956
0.3318688310290966,40.01740691932152,60.36686353992541
-0.07322355890987153,-234.8286755134942,-118.10493035903855
-0.4217877722636649,-268.20073862259164,-57.81986470264513
-0.6325228235193221,-115.26522589653428,-108.82163811526824
-0.34166020633101296,267.72264662352353,34.77828493368211
-0.5088724857375395,-115.58598213211437,-130.18731136635643
0.13083919991479936,237.782850735633,-174.2342557576639
0.08002767039519769,-148.39711959312703,103.9358775087648
-0.13090994388354565,73.82442821378092,108.49128449612904
0.41753466390962923,-294.84904694543974,10.640676950593502
-0.3328705085761641,117.64751568150022,-516.9462460077294
0.025498124043742243,93.24177281916597,94.54960837339547
-0.064911582547663,9.050634578109388,5.4724577276092665
0.41249765847356873,42.8067999088273,-249.50367120377143
1.3606272818705425,-307.5986528362541,-61.26586232882255
-0.38254976331203866,233.98431133901445,-66.30230817274607
-0.28948594823849616,18.016923458356125,230.15215480210415
0.9066962726110677,-32.9885125288704,19.083869732621714
1.0943464400400098,-110.4669587565206,-167.1710967195018
-0.7717109036130827,-52.54913059136525,-350.8200700744696
0.45196623176502576,-48.10100899919278,132.17788015055237
0.6915178247549647,-191.80631991844032,-49.367706729228026
-0.011267867011490657,-52.796616124600746,-205.28880777593534
0.624927093112706,86.05643232848217,1.6529724051781012
0.1529304342802783,115.69811829791337,-389.49811443668534
0.44119836363764875,-4.905281533895455,-19.989689589647806
-0.041851223882323846,-32.73527682989356,37.63631314604721
1.086525141505924,295.90375525489105,-377.5885793166038
0.7020460310024104,227.513568058306,-7.77011729794233
0.12192736773371025,323.1519354290675,-116.75782046038019
0.22269656798947357,-372.66833087662184,-238.68597697155906
0.6090990003193344,-153.93145763567838,-107.84036002670409
-0.06363917676904307,87.41954543291513,44.8480272337404
0.32802539166144173,-315.76348207087653,16.81464396787345
0.2653135515345815,-168.06340678399562,-70.37176292903887
-0.1856098590439158,100.25719891413063,-131.6077810953288
0.416169700507951,212.38167171092405,166.43658790904266
0.2715891035138423,47.83786715988875,204.10273990904687
0.45761760529679263,267.5043058682574,-333.0106803304923
0.47796237837165956,-156.0713213803425,148.01610718761984
-0.42727007493290975,93.89281069817706,-43.92752849460735
-0.5270244289956425,-259.2447697931875,63.05823234305077
0.16300390717523477,-26.175400001177497,-110.8341432885499
0.1184219552931602,-193.50007192566073,40.811743771528114
0.9799022655482632,89.69195732211966,-388.2348566118346
0.6583272595609932,-211.67557602019107,219.2628780682839
0.2998419865618334,-255.31703370795105,72.86894438829462
-0.04340113399179371,-76.38185413790997,-9.72812793855331
0.2700501025413113,79.29224824551773,69.33576555822795
0.7390965376130532,146.49816982928593,354.24758707774606
1.1312729789073315,232.29324300143583,39.10441951998643
-0.05205454437680923,-194.39659779578275,133.93231036166128
-0.370225625889344,165.86555408022562,-244.86067522411156
0.4811729977443661,145.89112954791997,-267.2714591461505
-0.15430889864081804,137.46476555242268,-145.26909079116126
-0.32245290978501057,-17.230636719990347,38.7367651037938
0.14984623060686605,-20.917224246282608,291.2579991966753
0.6482777685782513,55.86307133129688,185.28626321227839
0.31268706397156665,-113.48210544322444,-60.08914365382264
0.4157314342815275,-110.84640435298529,-268.0010824292553
0.5571666916903473,-180.9019803969245,29.69101109257202
0.9253272703218294,-530.5111676082006,155.3051317624284
0.019033078428855987,-106.79141228647686,75.3567376300402
0.18340091054560448,48.881266447635355,-257.67033215295896
-0.6517390036077029,-178.90346879074008,-442.58150896853846
0.6787797609457683,261.4322820413995,-144.3636930780279
0.282825587043007,213.37417970005808,233.02554279857634
-0.7833360916872885,-31.054040224871304,-82.06066134500333
