0.021063449817108282,6.775131908904519,3.839574413265454
0.00014405948658633984,6.859281409381655,0.6641130046173138
0.025534353584310877,7.836128564054018,8.75411879443532
0.013711333456258884,7.876310304012966,7.775542135463105
0.023540844184922652,6.095493852819041,9.23550174090882
0.02103467392088054,7.7649963057810165,2.8048575792012045
0.012087049887722336,7.726928421107017,4.470216130372017
0.0018167210339670615,5.148762171183288,8.776085353123085
0.04248394758381509,5.295201682135002,3.444121679561375
0.03292839382306605,5.948246081611559,1.458754957955204
0.0327993964028968,6.291264190695783,6.390801384530146
0.043298885477797346,7.453718495424014,7.565071993163551
0.027229086174214795,5.064552026781716,3.3059334759662584
0.02250641804882309,5.713041738615081,3.9835593056348784
0.0023903688540338145,5.9086818637760015,4.06349543475862
0.002012009856517749,5.443795436526498,3.565113625105465
0.017946627641806663,7.449170663586347,2.717224929431614
0.03524061812713305,6.165461318036362,5.6735634420904795
0.03909696409303198,6.734247283313292,4.572279943795211
0.03049919642270306,7.086171318916685,5.876963163574573
0.01206796164775948,6.976522928411944,3.0642953487907842
0.04464100231444332,6.40484277803325,6.944118650350379
0.02862766361690898,6.942785606775961,4.780692171878027
0.029580937114061297,7.882234627688834,0.446205505214502
0.04735502390153769,7.6831261380456,9.577894571459531
0.01920597433349691,6.948861036669737,1.924292204885305
0.022875816425510266,7.350945239824137,9.588311616086001
0.010648674759971277,5.132466931436232,1.9218426277407263
0.04828527967282395,5.825739894183135,4.0896180087265375
0.0017098338641939716,5.448632585648182,7.389733488101614
0.046868255301235444,5.1444820338736,0.11671450465026711
0.0029120840460127974,5.3790853449513065,5.584498049033569
0.03613817701878219,5.463672521573791,7.939281084674475
0.04652528131183751,6.723648908169933,4.634961249902848
0.04690054996468067,7.844666044973392,5.5750781113070715
0.02815132063932036,5.11696614315218,9.485039761750993
0.001760588694391374,5.892272712460783,4.383611712015289
0.04507829376202224,7.818615586671144,1.6648080977746404
0.040490758023722824,7.659501709306093,4.416901713380227
0.024788868542760197,7.870109524051854,8.486806784168959
0.010450910702222106,7.782892516505717,6.583821887175995
0.003361787523931248,6.118046053866573,9.213069562831826
0.020628311692313744,6.781901419631641,6.514398964814357
0.01706929342332369,6.289448494960809,4.415928456045506
0.022240875339538342,5.918166703594032,2.536833916862852
0.04725333703559999,7.020461218902307,1.1983331746871195
0.03644052366010047,7.114050935116625,2.293826122562491
0.004322132396782286,6.200529173207554,9.98263519386381
0.0029828803120067805,5.546404696213108,0.06285845032834025
0.018974279031829577,5.474246410508048,9.445062135598349
0.023692295687443122,5.217487623060224,4.748547770976682
0.009959172173173703,6.809267031184324,7.091210771599198
0.03216512192294007,6.040339784278979,9.203155609009034
0.005277065793254293,6.697469900706672,4.421315339080797
0.03955996751391439,5.001040834381474,3.584619361026663
0.03756024100177443,7.113197298168986,5.221784839433912
0.0015456882090078674,7.673708690754412,1.165945400266487
0.0479196760259033,6.365746136541877,7.560454054212443
0.01303169311586725,6.520277579847777,8.364096037269391
0.0442389204655377,7.033457965340878,3.448001488239875
0.025663682506472624,7.3819697338919505,1.4654526468450446
0.006147639830435859,6.725739616555506,0.2101684882875654
0.042642008607413524,7.375036942083678,8.822666139889346
0.030187763049387875,7.800133791367193,0.2793997045597685
0.03765091749051222,5.758009937235223,7.094449812586846
0.013040772318733768,6.607957739911452,7.127691782596263
0.014310658576639858,7.110723109734392,7.549579562514273
0.04022901858693955,5.254254577820063,4.507189539778843
0.04251478044430848,5.841466615521225,9.549894631169845
0.005128359003681322,5.198632678838448,5.813176701185807
0.0010244919089802574,5.87230718117404,8.75098710473109
0.04120858572542211,5.016501677056786,4.062458223963105
0.006418075456991085,7.63300578813193,7.489814680906292
0.026738659483770258,6.300766221459724,4.3074701090779755
0.039375442716067126,5.476997036239352,1.7034889147038845
0.0031763552109695618,6.4690217176513425,6.316812516997972
0.04034370504137211,5.633554185013904,2.377255071700958
0.02286563769724651,7.704814492661988,1.1602758519359146
0.04258606874253019,7.205855361145004,4.681921131315995
0.004763817479469096,7.323701570643985,3.550744399421716
0.03793273618801446,5.746949655776046,8.4666198076438
0.036624643736119664,6.314266984268178,3.2195287237206784
0.019025376657363282,7.588700723457761,0.08799127580836785
0.04527456791755292,6.267133764043227,3.664579956915647
0.016347721286097818,5.623935179825293,7.893390099391288
0.0027261725973472487,7.279314526188209,0.10436727825317016
0.04681782366504866,7.016445007623106,9.774565760078495
0.03270481969716877,7.279906283452657,9.378344265537796
0.014037462484913494,6.272329756641552,1.6878246948636344
0.04875875504681704,5.256494945535142,2.460070582263356
0.0388716803935802,5.580180770371347,6.16257436076801
0.00916672419499513,6.731997080074322,2.0724952333093274
0.007330940078926613,6.423385546324695,9.44848602904436
0.005744118795756642,7.782711531910147,4.45700077133476
0.0323617296021138,6.8373560622844405,3.503664104641724
0.04752059532778238,7.092923858697107,1.495977994989477
0.03199693313587958,6.087646312972172,7.080366063895296
0.03970211744670955,6.200011349882041,8.054042352540707
0.002268017156774771,6.0576402847199216,0.6440639427639328
0.00031064898424714165,6.447960074589091,5.353407444023198
0.023341590061159247,7.6996393011115245,2.2900574701064103
0.006747947646182423,7.669336719302735,0.615162188178926
0.04587627743169122,6.453626405060627,6.924842226656681
0.013199272349132575,6.29237524153343,5.667972787243087
0.008128909520545435,7.151096030795953,9.831415755568983
0.049645154350149656,6.2028482323082486,0.6154477808744652
0.0021382332714043164,7.39111586477122,0.051326470944128566
0.012339368333692369,7.581156168856337,4.664101381309521
0.009550573192474866,5.820859193061851,1.2214908869600916
0.017321738264403592,7.214465876103306,0.6154633740440718
0.00023285152540871158,5.579359354770244,9.127734682424986
0.03695282808997816,6.82628049382973,2.920463665839316
0.02273200887227534,5.504607336031061,7.215943717178801
0.026618363749810366,5.730603468378502,4.093407787057707
0.04499252367795359,5.0913703976397615,4.71995697738839
0.0036520960753572643,6.375326751591327,4.023408688495984
0.031523981498916796,7.6928395107292395,0.9181092237324295
0.01502221940900308,6.0789501355631135,6.337726448567741
0.007680443029133072,7.18395314927592,2.1614401783884
0.029630953431489755,5.598990170705987,3.7922605600165338
0.006072021306597697,6.85387049196876,3.374334509825484
0.006704563666460367,5.732342839544455,0.972194860943516
0.010759565304573622,6.833355142285453,0.3295829473798184
0.025503338233110164,6.3172261685388555,8.742140886266927
0.047106543288768316,7.109821694159729,3.002269861140551
0.003971588984192087,5.482601544620234,2.386539784414432
0.030732015532313323,5.8570302527437335,5.122073597077366
0.043503276059403934,7.620394160185677,0.15622542517782612
0.0465328071400693,6.137367690590606,5.7303667514273195
0.022023812788116194,6.705658100061161,4.998063998631831
0.0064525632381149615,7.534681331531381,3.570763516793435
0.03447952515620215,6.640242642729897,2.542954097619785
0.03405298631900946,6.740202452698625,7.419990357645907
0.007631303626060376,7.803948024961732,6.825881479810315
0.003629021618169931,6.607883087073344,4.2403158444724465
0.02965014392210552,6.068379260426164,5.738581394935963
0.04267833031927776,5.710597542063326,5.684666686262055
0.011962607493622697,5.719649360794951,2.4149377839198047
0.007862748396561354,5.43216468095935,1.9623515974569261
0.005259974656939903,6.217726093768026,4.906073521744606
0.004026604652055066,6.917470922970773,5.586327572405074
0.043618412975472115,5.833873533731216,5.046544359125398
0.038038353144434475,5.216024887991628,2.8100435027228468
0.022437765635495772,6.556627793552838,2.7449009000138846
0.025778837268560013,7.729940123815013,8.897467574233314
0.03202945960568803,6.986406616740733,2.7356610855120236
0.03775481313978907,7.109994935739452,2.2240389561604514
0.038782992320784616,7.786032813481295,8.204128236299516
0.013770054263403343,6.605925941508567,4.363428014209985
0.023755069533655845,6.903617924573211,8.892001624674453
0.026601243564614886,7.880828437908949,5.9488795087360185
0.020072403250153033,6.044787343710549,2.721723788945656
0.04729744832307386,7.313833133110153,8.855056686625947
0.008094081212275561,7.050496491161015,6.294516362892519
0.04182745157745139,5.1599839723807,0.8651180626847521
0.016513760647864445,6.970549859262771,9.672376029088118
0.004168399897991265,7.593352512928224,3.9364312219245647
0.030172619979058554,6.3436093735665695,6.675815531891046
0.02757091197844494,7.462589436924411,0.5242330617218327
0.020080904766269836,6.470353409034441,3.9704250997686454
0.04824879107510549,7.580170144253102,5.647178777053206
0.016645569395812222,6.159298637443179,4.321557231680945
0.00671817972974354,7.206613277949488,5.247346226128831
0.023005215813278197,6.332815592646691,6.005716220397369
0.025264128035443145,7.7901506736982675,1.7273907638086994
0.04941082375597899,6.169947244196369,6.502069291085576
0.04500533256207731,6.826662815399947,9.240790727283064
0.03791577377662814,7.9865899184858025,2.571729125846552
0.03583227423743348,6.765199552881419,5.818999457907397
0.04791237424859217,5.8422617202174525,5.34450471575761
0.04802299565233154,7.18599572637729,0.5122431734169486
0.013008375203028461,7.000051805742165,4.8010789215679015
0.017020269408345223,6.581817903987824,7.867521996020645
0.03615706572681284,7.120958642848899,0.9010865592957817
0.03866003123267592,5.738078960220194,9.902452870804797
0.023462484876365763,7.84498554249387,7.881947711369792
0.009329139087197963,5.047775044955337,8.74575391672773
0.0445346311769883,5.129735471260962,8.784891572737756
0.02393229049220119,6.472200604834349,7.4221695912427155
0.0037163708194896897,5.4102564672184625,1.6088439844726432
0.006811213888005563,5.419790780027596,3.645994987759921
0.011187727666564413,6.594748005148505,3.8081999138599087
0.0358459632787032,5.1547091862102254,2.736105286744336
0.017464840498755036,5.19397926810043,8.085872247169506
0.042062079755742186,7.4759545327106345,5.42707747563143
0.0449496260377385,5.908546718334145,5.702504473015826
0.01370813136240569,5.233218643440322,4.1728413489598655
0.049328891522058084,6.8958877894460535,0.6403873899503743
0.04461416023019706,5.074226792591789,4.46165743271904
0.042969325960350815,6.153099505110718,6.247595349110185
0.019032099155681978,6.024505501254201,9.44817382930542
0.005728687338777311,5.72483728986558,7.683048374458572
0.002419981809055005,6.897883060263089,1.3252857907402693
0.036577793441989574,5.974685191899349,1.2705095065409167
0.007080944908401704,7.348801468709379,6.573526425321709
0.03049109781061452,5.3537492051871896,6.5415455633295725
0.011446041805373008,6.814154469167831,6.260877342898158
0.03376068502031721,5.078434410704846,7.0271667190533496
0.038702422893581806,5.810075143586747,5.2543252591031075
0.03920715434362506,6.158382450506318,8.929095293405553
0.03594189709996869,6.390913924392506,8.499269151898822
0.014889081132666116,5.7343920803270425,5.918480464464898
0.04475440144397602,7.478621211076317,7.97378599019159
0.017318810803572872,5.828363531208713,8.3981648499245
0.013884415341160217,6.355286743120921,4.18430242454948
0.007271394100834678,6.518542806219029,6.479854575989696
0.04830010130506582,6.793846273266606,4.641869596592793
0.034999725867765986,7.5322534589194845,5.573379176934812
0.009835532991310153,6.662824911740099,1.4541557740848066
0.006060365880143948,5.083582937091006,7.743421729264081
0.041590441820540655,7.220159182874827,0.5164518671677742
0.04845772706996662,5.445865744227336,1.489676418039746
0.02873181499910146,5.867508479581296,3.880477590030732
0.027195943709256223,6.8398149191547235,6.752742589616959
0.028539698980805956,5.523920460726029,1.8175976740209976
0.027365869348881272,7.714066804136803,1.7676109145289853
0.024323661901758217,6.654291377981961,2.9116883783061596
0.04997073667502938,7.183487433648729,4.558776056876606
0.030895125118762592,5.8362801154025234,7.7806028335357595
0.01192588490206677,7.452640688370747,7.491102286953296
0.017452111808944376,5.291353453350058,0.38458623702381733
0.0048993663521013755,5.257461980692172,7.754621399279592
0.0025845808633380707,5.852131605287651,1.415686271917821
0.048543517000686244,7.2024538018226245,9.616172000519796
0.04248279411849983,7.666595431400706,0.37072152327627395
0.016320032550750065,6.525214214184558,8.718644086595999
0.019701024704623316,6.015653335290191,3.69524437915734
0.024965630964489963,7.477779098092165,0.24847666644039812
0.019093088792954432,7.659546015292197,5.498849365032804
0.0410767002201639,6.543285595449418,7.548973383344963
0.04094556378777722,6.620786835051163,2.820129100081642
0.03157427380373059,6.571764589206259,2.731670854818331
0.033755716351721324,5.843999753039784,0.31254341052689316
0.047338320522005685,6.951486098821859,6.766484605257819
0.037633897495174436,5.789798152583656,4.920765675394079
0.011906579885460261,5.266518804915647,3.716365591320012
0.03321291097891447,5.602604240596031,3.5651267169309286
0.019034543168042945,5.0489400402538465,0.7661339917545784
0.01986757740554464,7.69312535511642,4.100921678614107
0.017665340204838405,7.336905588705497,3.0494804067991854
0.03233950689183731,7.743560690257983,9.593684412655396
0.03987403507033563,5.181453275051729,3.1780347988379907
0.015345815852922346,7.9746303639738,9.925832419636684
0.0264710284082195,6.362970504022947,8.880675358739866
0.04815288664890908,7.871146822838538,0.2871810323740187
0.04635613591214917,7.801465922849944,9.459443557545995
0.03826591368786374,6.642781979418835,1.3732603719297398
0.042225882202811676,5.189847291989955,2.24232913650778
0.014790460280262952,5.713253360249986,4.509272219781717
0.0441393548133025,6.775871905011395,3.3558125866145327
0.0018528131255293734,6.210265034273553,7.646143623095246
0.012016385975062206,5.28673294395715,3.3986031525388913
0.03331182685319669,5.050686732325008,6.336062260787876
0.009974403278276056,5.799051834328454,2.2242421008465985
0.021911593989639516,6.529690066124836,2.201695098181471
0.005863024812385914,6.008384014349282,7.813042604576868
0.027733095298780847,7.152380898056775,1.7868974562826123
0.00866888754428729,6.6461909725876565,1.4450073832370247
0.018212884465522435,7.982787234480401,8.286400556996233
0.019122944431038028,7.325679117737565,5.2736057796823825
0.03445238971164457,6.770104214272413,7.8496527879649864
0.03222395868163139,7.91333741493602,9.645067496901769
0.014253827333530339,5.464673051982359,6.7510425548098425
0.01022162937786833,6.881406919417824,2.7637762500378917
0.049412650999180574,5.03003586928572,9.368369506840555
0.032519461972783284,5.128899576380147,0.5079191995823984
0.047223056930980084,5.446425463670357,4.121291127416424
0.004359181605991735,5.30280670058794,9.4170992182533
0.006751772061611889,7.2581199035402655,9.713715824890349
0.013772260406308363,5.823742970417412,3.671000085870173
0.0025901232303936596,7.515320599766422,5.354917144347868
0.0006124334917189111,5.907048230598233,4.975162854243409
0.019528799796693187,6.230787467699699,8.233825928315527
0.01688270127342677,5.601570656399818,4.897338916665222
0.04689384154370352,5.454222068738806,4.080429447070709
0.02232991310685283,6.717059077622514,8.698149848950356
0.0256826542425517,5.648750774606951,8.612699296945003
0.04998579488463798,6.833978510395272,6.120621587068699
0.030882054949730106,5.119508723424374,2.3747868998821264
0.04025823278574797,7.575139646972831,1.5201632417463629
0.014163230274640733,5.6470473904238165,6.321810880024551
0.02837140848379895,7.345824985822415,1.9729257861904015
0.04009775872951964,5.484704634851827,6.511614035896207
0.010291375540982813,7.016969656980011,6.390961805324375
0.007594736180800005,7.829081874924109,7.775585188421243
0.038248814242432955,5.495487340321931,7.679048921498595
0.043418646357502415,5.150926268193253,4.3638071847712006
0.003744549788634233,5.227597611932956,5.7313227480945095
0.018879945988073178,7.994409366605435,2.2071559119045037
0.0454351285999578,5.739221142001459,5.26457445309391
0.01566158489282286,5.964884971721902,0.7024936835803508
0.038361627307884116,7.15975684385466,9.012671965225362
0.016876897434427975,6.955515420428538,9.546607555819776
0.007328218768124101,7.363270477017192,6.121193034652577
0.022364390833272116,7.277799038303254,2.1165086977833503
0.044367101135062,6.5269630654017465,1.3677784669473003
0.006687129551299376,5.570713687908085,2.2413859824422255
0.024123047025186792,7.898522012279743,4.5039875264485385
0.03403394565836622,7.867610281337013,1.7266966413630824
0.029353179393704146,7.048060170608061,3.1596944456944875
0.04353097847790033,7.7335413082399596,4.700712135778179
0.028442210643285677,6.241142388938168,7.589600841993612
0.009433491319814614,7.579003351346301,4.938727918475452
0.00583949082563145,5.262764447884644,8.348886065399832
0.031761785679648574,6.949772158409953,7.513706340443626
0.02430864021317876,7.851208048907613,8.828486369048253
0.030817113026014555,6.7024068720555405,9.990208447017446
0.02989590451132071,6.763739942021351,3.696892355270486
0.04522032836034888,6.765613693143259,3.118904310393039
0.026817667823362975,7.923678630002913,7.448418360347089
0.00043640211677602463,7.53188852856824,8.33224909988253
0.02009845600202303,5.594390076751349,5.374889839939673
0.012310810267754786,6.365664765528219,5.594975282115328
0.010571286910149864,5.543659774465142,6.306507930630839
0.0262876597701543,7.573671449333892,9.957342756128378
0.047227036963379244,7.066749580263074,8.849313596420602
0.049358429249438424,7.270243578664293,5.75052091843042
0.02134247696955065,5.7879355249189235,3.214087459619539
0.02403333838496635,5.042386318446984,4.67571552040091
0.0433512646582964,6.7816560068300324,5.474772322214133
0.0436313328487365,7.0904319968662435,9.37540309676985
0.030898272861235615,6.727845105665477,7.441958248838365
0.03995100324397965,7.492628511997433,0.8789088549787039
0.0007830059688933634,5.874266476813629,1.1346692865278984
0.043321086540649555,7.400545491161945,0.60631961093779
0.04199642289277049,6.754743164585133,3.0233732356391565
0.0008469919856444686,6.706914366011909,6.4876657411608285
0.049441633197516995,5.649927645938408,7.64066172486364
0.021244858979818787,7.240307899412149,8.21481776035282
0.036280156750278666,5.673428571619781,2.2185289145385645
0.04785711739264876,6.195447794093012,3.3580629083254787
0.040551811138431655,5.905841360642497,1.253387574835313
0.04389228834980754,7.026761921132311,5.9377200102421765
0.0441619269662448,5.149336921020754,8.059845442607504
0.04268256969319165,6.893085795634361,6.146319495694358
0.044695448531522824,5.977501121762181,7.335000656616444
0.006434785721691855,7.214638959924901,4.316279951651386
0.04841326476285529,5.979365296218852,8.836061257018343
0.02642058582438277,7.130518622525851,3.9062777815344853
0.013723861707790858,7.055079668036333,8.314976606093865
0.03480359812420886,5.378700521279615,0.7395792522739797
0.03278646771288544,6.5182016453311675,1.3889934263089487
0.04789435063501016,5.414588149357873,7.365625698591977
0.02528057572419771,6.577554309637527,2.251083472115644
0.01897339958351213,6.351520337757195,9.002768275754766
0.048163936626058446,6.571572464767804,3.0364787127132176
0.030835112144717593,5.212075974663301,8.65131542952039
0.0068870495950997535,6.8880394018646784,0.8095148516694195
0.007425207614339547,7.320624765006228,7.960345913937874
0.029342559984943103,7.930512079950705,6.675236671100856
0.010502916781306737,7.253253776609361,2.7935623833500745
0.03641564228079465,7.473758063379524,1.050997120634245
0.003223519447810669,5.847034482267984,5.211146585728549
0.031611615148354644,6.4020807276393805,2.608489560395002
0.01470267010146344,6.745263830394747,5.359220981348068
0.012333159648587666,6.863136365534771,7.920231121237283
0.0017908771589120465,5.391259197346316,4.526262588460217
0.046448570984688214,5.9026134530760395,5.2664280954188865
0.034116234141460935,7.314060593042656,7.666735510965591
0.029064149468648826,6.126176425756415,3.4383748657636737
0.029406324369282835,6.831219043345423,3.3366457740528785
0.015874214528694957,7.324746074043553,9.402426218967026
0.034254270499897176,5.274522656455232,0.06464153354197699
0.025945150334042356,6.002551973920925,4.014958864515603
0.030912347073751536,5.743438400742578,5.760124131833146
0.002812384962060588,5.2091811683996125,1.0571477684399266
0.04588242975508649,6.335613635477696,5.962844254429587
0.029857902785537217,6.615167485165216,9.787591301131949
0.01982110827050302,6.5488740171062565,5.545151981559993
0.007426896770308705,6.786055090614986,0.023588159522678342
0.021458752589871878,7.193614734372453,4.03128013482763
0.034948853584566376,7.05312551660103,8.79277944314574
0.031911827777610306,6.839809235533664,5.63520389041488
0.007643849910032014,5.838907997946002,1.2498115113355257
0.029022122404798248,6.703324447708771,6.585029899581945
0.049363398939403474,5.408909274061854,3.714041106959587
0.04098972225424764,6.099472936741807,3.108155856499042
0.02855784655815323,5.759063389966403,8.759765603613635
0.032296946682717036,5.304889780718591,7.0012355054976325
0.016500298281718673,5.677874332517907,8.361853847128124
0.04552679991167459,6.351744133934721,2.5193011725234915
0.02826463748216826,6.089179338684958,1.0518509036698442
0.031131813691924873,6.872629804912547,2.06426936482339
0.028109374824469735,5.651523021840572,6.4833450564564945
0.005312295816910551,7.666460457274512,9.684587197838686
0.044604592078489436,7.792965984890948,1.8241711864128152
0.03847716932247231,6.267600679791127,6.195117813346941
0.0268772374553332,5.984271073906379,8.18437214347739
0.003238246892225555,5.1894362486357615,6.25582213016871
0.046860806084565484,6.834844396082449,4.113845051536682
0.03233478009549962,6.859618390882112,6.044168715806238
0.026233050567435696,5.137457786017724,5.49731111342087
0.00034073839576970747,6.9375408187297145,3.18085589347867
0.0006239535104436256,5.136111072244747,9.972289183691798
0.04646313255951062,7.680784351975664,8.18813745724243
0.00019872850926399012,7.359076575758776,1.8601510965110013
0.010165943846631588,7.705067901351123,0.2946738038825447
0.031894103125593876,7.1608304007474,8.873316558645108
0.044624676578021306,5.1245681317034695,0.7472517151869928
0.008691891004101138,7.925760259997173,7.801541145146937
0.02470984743873982,7.905045381140403,1.6478926154592577
0.037614575214313106,6.07809964979138,4.749603205169772
0.023318215433833285,7.060658625965704,1.2788857264839082
0.020999749379242507,6.76084208920741,4.503617090354038
0.010780169979532461,5.046364301655416,0.37532326005672023
0.02642778138643337,7.748946226546492,2.584219933759587
0.004199765914600556,5.684199134891206,2.752306309670658
0.020298330270055683,6.629873307194946,3.0592775787042625
0.035535338471714376,6.167407309337751,9.322154677713987
0.021689061002782468,7.076030787494261,1.3921089678160348
0.047388488667533944,6.647564603266118,9.19070033235186
0.007975866091636613,5.815567044281371,5.314587945577953
0.017874154702311473,6.030639433851082,4.55955023275846
0.0473059829281218,7.605594119076393,3.216283697597857
0.026030868005965064,5.299142835798315,6.459159364778157
0.03373479666699121,7.1594070012356745,2.362220581969494
0.0398798678178005,6.627608621307504,7.833251696699345
0.015547641897356147,5.987554011865655,6.547596875800117
0.0038547826955749767,5.833451805845784,4.056588419951197
0.028278466356844868,6.909147164690676,9.964667139507641
0.005846547241947686,7.137506716864628,4.9281008244404
0.011184675006932926,6.424283102974558,3.806602742666364
0.024483199057221978,6.467844392743738,5.152264854240301
0.00607020596774433,5.524330346309798,9.980547217695594
0.0077003885644936435,7.944481104676294,0.5169187758064431
0.03118673294881232,7.574490657906843,0.1421418502995475
0.011034646216409033,7.799303829491559,0.35728778491294744
0.03913642688013693,6.897625195183897,4.595882649708041
0.03921019133084982,6.7451324616225365,3.453584668544826
0.03093056748704412,6.601069370785812,8.808328521209203
0.023916754149567294,6.223439700328496,8.282472115745206
0.03820554670465992,5.554503838129758,4.382638974406063
0.030744848625644024,7.732601986086171,9.426225690634473
0.0145525454812789,5.408134876874808,3.6892462894696045
0.032848840139911094,7.035696593099883,7.562065574920789
0.04076629169917238,5.043669205381616,5.737042139034834
0.004572140687473436,7.935186524015812,4.635221481651984
0.011416523309182653,5.393641555893834,8.782479440555662
0.002413527023892326,5.088088945575335,9.745959323428572
0.016905363511293143,6.002684793785004,5.899765694191662
0.025174535384765634,7.9179854294810745,6.520007419828344
0.03351878213827563,7.284701107529523,9.685391169954277
0.034240374251749375,7.419919562029853,2.1121520208438263
0.03380953345389422,5.591403787574075,7.904507513365031
0.013952886512300762,7.688383855225612,3.3931585716624912
0.019059067341060616,6.771743280549012,8.305304050363926
0.030136665807890442,6.128450066801008,9.298204194629042
0.011541448119581521,7.668341109602758,1.8427825228223083
0.035709982022222794,6.343256260953693,8.413372867407356
0.013885121043232935,6.285537399149591,6.488859652672919
0.005725446624005798,5.608957545545987,0.1670710371653561
0.04023916175104838,6.031058007547735,4.276897251680095
0.03895375490151798,6.879839815590742,3.9956698261026267
0.04978800222191063,7.542933901185142,4.627890564172661
0.023934683938660252,6.368283274356319,7.878112227783189
0.002922352648277621,5.990408940536048,0.327117787190383
0.028402642945543368,7.211649437196682,5.626841414171495
0.03250209383740811,7.57971490917891,7.058970529894969
0.015372762064730589,5.180613061198202,1.058260796587941
0.013913398237629394,6.366067872983012,6.996196438182949
0.003305828005903783,6.956350521030339,4.612454556611951
0.018226443960228655,5.375886418269302,3.5273512800949822
0.02754248983260344,7.055520184814519,9.60570568362158
0.031033930743468652,7.519688553480348,9.55471527217373
0.009042171569344809,5.453836354499597,6.417305087625742
0.03727790035668224,6.998678646588208,6.978109429482279
0.00897457327310719,7.6028670052187035,8.891619707859569
0.02669958214081979,7.121126074961557,8.650585452888818
0.021147713917743283,6.96159545468105,2.0530598672143863
0.009231445365242131,5.224471757604848,8.837137517870575
0.023012720407952228,6.425226738348954,8.545185959191867
0.04992580183103062,7.61556972862538,8.731554351464002
0.028081136718297622,7.1019803862133255,6.306204249458124
0.04084146607672931,5.9238416914419325,0.9244946824534117
0.0005927896765635211,6.03074532794152,2.7467833796222907
0.04622099938307625,5.361620542840313,9.189026101789514
0.01622221297634819,6.535578403496363,6.836320249005023
0.01309189319958255,7.573677152126957,9.644112601334115
0.016930713126144383,7.002800211117956,8.723111841803803
0.006920992598442622,7.979597427000476,1.9345693965095223
0.032905021777024396,5.929531010115365,9.502507836876887
0.04501901106251187,5.970778998398101,3.5896864221300273
0.024843160621521615,7.455562989391489,5.028778110042309
0.03676187034690939,5.861284004193711,1.6621236814915097
0.02760569829413504,7.638938356631302,1.7714388617971522
0.039957206720100155,5.598084568133805,1.4619904051797539
0.006380173116090776,6.455575912193993,3.320920301332866
0.020826310906796604,7.961812662118166,1.7396698132153499
0.036569579385538495,7.26629524900304,1.1149441815557426
0.03375878218324876,7.396342318801639,6.679159318289049
0.018743238913996235,7.001975012524012,8.054176125971916
0.00502644584326541,5.638246742732527,3.896498437684537
0.02736085109109218,7.827074175980571,4.455080529796653
0.04885999576480606,6.3812984951727225,7.7341253158853975
0.01957092968442069,5.813054683708925,1.4916636697828223
0.016359300023181516,5.475947845438145,7.760050456043835
0.032020364266955585,5.701060264012181,0.3891532718867907
0.007642031555078871,6.24709972399206,8.940827298147994
0.03916160443783438,5.397075034313432,5.70941416941524
0.01927589441084501,5.487105972174487,5.099754731235788
0.016996876444270677,6.943675130377485,2.134197531399341
0.024451056207386856,7.5026082654245805,9.708961871890958
0.001682367389122097,6.616514789492788,3.932336929368362
0.03644569505670262,7.761268487341742,1.3008546413193167
0.028332589245079844,5.709806724404365,4.047219943948683
0.04358688936018715,5.217283644740506,7.496143925545806
0.027358587251483164,6.384043209955865,4.436383077476739
0.025580494507505977,5.747082913876551,1.98561170094253
0.002384108634665361,5.988494725100636,0.5394200813110606
0.027314752694346908,7.573427904020534,8.616265026301766
0.029570866481053344,6.532825151311648,1.5692728011494617
0.020233720938575634,6.439137436228146,1.0996116747732665
0.02656130428287104,5.480173406395901,6.847201778239085
0.04232689562792286,7.826158050857536,8.828159629767423
0.009627477934901553,7.809912101898157,4.823337449066872
0.03525833233035653,7.2852175923456315,2.0496277532369787
0.005284860616845311,5.78683323722559,3.710343588058164
0.025206686446234736,6.141589188326412,7.452445749787322
0.025303134192818374,7.1829047310757055,1.3910114861517298
0.039564637584090734,5.451534073758125,1.6986108579133052
0.03355445310027706,7.596142045516441,9.091121142922225
0.04682141346833662,5.686555283895684,0.3522490214868568
0.011470716469275166,7.195559799068504,3.914885050629535
0.02591452977107833,5.101812979659729,4.049600991040791
0.0029084462555305115,5.042993968041635,8.39480761079437
0.040796231253749524,7.6089934554240255,3.5565737036511735
0.03556779049631165,5.510387763357456,5.178413608568277
0.0390634933344768,7.173404225815755,8.444691480139443
0.04934173892386988,7.382535975250864,9.558450988129353
0.0303351893489166,6.510579667020817,9.006378460350232
0.015656862908353313,6.120699444831754,6.814286013278451
0.04397569548664999,6.317241812484688,6.772275659185453
0.01958917390737998,5.143376757478522,3.335911397024871
0.01883959290905068,7.9256516709651,2.5200177587944173
0.028406288601529352,5.627733675104732,2.3627520922306813
0.010580843411962094,5.454872403735992,5.16074450588339
0.048198035947643644,5.843464920464761,6.4881878927517525
0.01326492284681905,7.456699869480669,9.89120407467609
0.003688466175030336,5.337761118380637,0.08063481146489138
0.031847679460225216,7.804551175746344,4.165031200338478
0.005729076426077978,7.362216960857017,3.5908703120416394
0.0013644488993010075,7.2692020448775345,9.315701262668805
0.029481612442259764,6.91198666185239,8.860082559601029
0.040426864647835015,5.787650614509404,6.39344971301392
0.023975875299621086,6.465379010470518,7.825162387413146
0.047952412154647156,7.283840651335282,9.073783278670533
0.022727764905930616,7.319449431296164,3.9992214712662677
0.03918732672381397,5.725221167416522,8.779737553802718
0.015128635039706052,7.240451175464898,0.0001400451574951056
0.023460645796553922,5.489459239078065,2.242071820165372
0.01919200731690651,6.413471560964863,3.2156864021771248
0.04994016052062629,7.074977582601873,7.285621287388855
0.03216623746015328,7.922243398188961,7.472678815192003
0.04722096193097327,7.13166223442142,6.814041486692506
0.032710614843395346,5.753921006787082,8.575001689672856
0.04506853361388589,5.6881633658417154,0.2775850152353243
0.00467435942235539,6.5590315538495805,6.130240596336392
0.008658698099600393,6.957227680059518,7.466204589296552
0.04569497313416746,7.0437418417738735,6.5166765042628905
0.027148184694531775,5.053494678529473,2.4946202188817033
0.014677033196500718,7.4964631394022465,7.871179270471821
0.04178984531693358,7.239385112056494,4.69108856346343
0.021431660754489754,6.9470313435865565,2.4245277577792868
0.004082550156756864,5.28306064200734,0.8274637972746468
0.005284182455357934,6.486447226206721,9.848949257906614
0.01782225822305767,7.098231020682461,4.79596698472468
0.02851715571773497,5.560261308662097,9.993744918013464
0.04187274204950514,7.29590680380316,8.093701852078759
0.0415720482675318,6.720306669370139,4.797297937752431
0.013398752663056419,7.169226024490143,0.8888474017126768
0.035776145041131704,6.958876346895818,5.680614243052629
0.02317210810791013,7.495971419455487,6.871679613882563
0.005112089895935118,6.612233213745212,7.18428444309854
0.0007693846322042786,5.515573532560628,6.6825393189587405
0.025334659682228273,7.7403058672700755,4.853821851837874
0.035425494365664716,6.567139725151457,7.6597576799962575
0.002174679722527717,6.87550248319833,9.278014802872361
0.034325787515117494,5.327230977712205,3.285153211128052
0.025281941460877908,7.646703305759073,8.192649236952033
0.012846732029186087,7.97520017128853,5.447664570059323
0.0007104252053149907,6.3028815364178294,3.965942400239407
0.027196389869730338,6.0276185411069445,2.312687660913216
0.024740269444019344,7.862878128325674,6.692351721497799
0.03935460184948669,7.344083096777737,2.613813509085894
0.029415355784052258,7.22807310316971,4.313976908272523
0.0430090639660119,5.992446596385822,8.201737943477715
0.012991680155241237,6.256192363454116,1.5309795680737515
0.01561430114664249,7.678638592516251,1.0722203606953673
0.03179960985105012,7.842932875295533,2.244388366662138
0.0019431217430028126,6.457143136067542,9.670379038405416
0.006413848391342525,7.466133953839172,8.263623937451747
0.011996549487837122,7.852303007480671,5.464171871628251
0.040795478826397336,5.0732141658687855,9.737426327196594
0.002930802558015455,5.015175125941313,6.796338909381742
0.01727325785324319,7.91074828314186,4.203024066480627
0.017372528784820356,5.603940569659082,4.460961919530979
0.0367262833218662,5.837201979683839,6.237010713053335
0.04537985009238277,7.759071103753608,6.040983429171622
0.020249139711440746,6.9124100443013425,5.255837770813385
0.029953907815928184,7.188202602635993,6.071646427188149
0.020544177957814963,5.340921817208869,5.654468513508921
0.044303973708465956,6.786673705735239,3.6810848066129465
0.04850297200366726,5.4491142450360766,9.475407603019491
0.010572540838170347,5.93561063823921,4.725590078063372
0.00942947143366843,5.129519124854363,4.7425609063467995
0.041329012489313505,7.607244640401014,4.97711311717834
0.04064894330775023,5.303058944153826,4.264229482388078
0.028266506413882536,7.854230066105778,5.425528480815109
0.04656131122921993,7.723220426609995,5.357821603994568
0.024322094485971803,5.7312251281199895,8.951225335714813
0.027561579946187617,7.596386778324444,5.877087941404078
0.03214624560304316,7.871542352560144,6.54748046678007
0.04449908064205571,7.689091063177606,3.3365638429142894
0.04438213011328235,7.356685260031119,7.32708755099408
0.03446524026285868,7.884135354131985,3.1374879419271484
0.01316886088906154,7.047282192763884,8.847142674237588
0.011281411692584016,7.1629327512029715,8.103806787764075
0.024171414691497212,7.822211051315325,1.60588170090456
0.03191628690616025,5.415252747873854,3.222538042118569
0.031011624202127525,7.320756261741565,2.6790827630791503
0.022822813954651328,5.510319357310094,3.152451470838634
0.032774601998068476,7.74086997641989,2.965186695185099
0.013365471558291098,6.373631004391962,8.946940637920818
0.011415004299547804,7.792139400845337,5.05941085751882
0.010025358868657836,5.249324427702806,2.3759693885004642
0.019721379961478425,7.144646128115395,7.869693875159928
0.02773320175062582,6.759489435007203,1.839750686712519
0.027163885481506223,7.484755951320014,4.490482704607874
0.04004632870009193,7.1673675862016815,4.042460946044012
0.021988947065501876,7.504195893500555,2.8647188776490387
0.044639960703177384,6.867783387150244,5.675530329185233
0.021851292223485683,6.525598512925331,1.7250087864460728
0.03893319523458668,5.3067877779626915,9.09161764911942
0.041435395763424136,5.480860541862923,6.415796006599107
0.02586404573076579,6.8272470118003685,0.23512401932673566
0.04271753951788316,5.118997120296632,0.2879406331006651
0.0172551221670138,7.457600696680979,9.785549366476326
0.03307913976605183,5.066951240303297,4.928196694245597
0.049439819886270164,5.8062361553536075,0.8113839267656009
0.01762379487650718,6.674887744191327,3.5264549033556216
0.014898168551803837,7.670958229354909,4.621266865642105
0.04454705270734614,5.929164372394115,2.9058986695812026
0.03821596012249548,7.687250815475764,2.9763119256201156
0.021821031542080118,5.738089675735348,7.857435684615966
0.018077699578453028,6.495390486164599,8.563365858061246
0.04539259075825879,7.128175543846101,4.818448409580476
3.528259278088308e-05,7.983927557393476,8.49381636926961
0.027526844497460557,6.968086573082312,7.876286498873787
0.0388653175639105,6.118121747680319,6.682303417391592
0.043932746957891046,6.279313232608503,7.569014007541036
0.021107046838872004,5.066438246615934,2.921897291297957
0.001746076137582664,5.65016114748387,8.153497686259994
0.008359102866083074,7.7893131097683455,7.756988600639755
0.03374922656077855,5.23549496481382,2.4186791129669407
0.027092172518783587,6.901763279755844,7.457907157306522
0.025792556870930468,6.600005217161993,6.483416895221573
0.027513993212725626,6.179314958459802,9.955019419175395
0.04899645043458465,6.378162803099375,9.495310766028203
0.021806718468722553,7.865949388947185,6.549224928631925
0.008472471725465792,5.557093325291014,4.982631740633066
0.02850312632156093,5.380337238217642,3.0189332768171075
0.03296885007963188,7.281054693761904,1.2165213126252283
0.007804873781255034,5.068485676891427,8.449713065000884
0.038569810833462434,6.6842572471552595,8.831520139955998
0.0259632325320225,7.73863757741666,7.747973379044401
0.012197063731080916,6.828763318196616,3.195931145350299
0.0375210781085655,6.346800116843423,7.340982992057637
0.006957947502084777,5.922169677544039,0.42489056472861053
0.02975739275972012,5.261434144701538,9.544019862611883
0.04997783685488067,7.611407384353991,0.8450216497569774
0.0037409443683881494,6.654264374195736,6.481483925690607
0.017358042504749878,7.1601785280787595,7.76984329616722
0.016359856787348144,6.44808599088897,0.7807346387456238
0.0012891979213448534,5.472890857447456,0.8984211452805191
0.031311328076075604,7.325848794859107,0.7732978090639442
0.013493392428637447,6.274969046961761,8.109389229380744
0.024227485010226403,7.2399921903980236,4.916469258758774
0.04785542905453188,7.848968967900955,7.157566182430221
0.025713621349102683,7.449064757526233,7.40732870999304
0.02042548384391002,6.653504392648189,7.711394565704822
0.011371014040143363,7.415053983787601,7.832816147373226
0.027798660780445978,6.370470909560572,8.437732603776396
0.024429898954662733,5.530610059010462,8.666116115242948
0.028068472867728927,5.664536578671833,2.157068175521192
0.004314436073507794,5.625662604399092,8.098087587696087
0.038641795362422876,5.9127958867592705,4.015795352774197
0.04407449894760773,6.621725696457467,4.541599068375437
0.02946420015921768,7.410481484402096,5.880442411613666
0.021991794845298014,6.6660020747372055,9.759877340655859
0.04845214610995616,6.163657693363229,6.230052427404921
0.018737594880755798,6.664660222592277,2.7434170827183824
0.0015456240541494638,5.104769694724092,4.30885424922667
0.0023297150839645788,7.503091090004082,4.844641709229357
0.049847976882094795,7.798171226593902,0.1353481840616555
0.031226434810564047,7.234030477904589,9.02027600676445
0.04942173730160825,5.853440777838371,0.12898397727037492
0.04267717802743565,6.504073391838339,3.8119821032458265
0.0463873644928734,6.5044477492283495,2.4608432295567804
0.030441462372020542,5.20840327185004,8.72958533269956
0.017819313757155644,6.626699811826752,1.5524128078412258
0.03176263134817007,6.638287276587045,4.729057597984393
0.01856197050325248,6.783999749334825,0.26612426536177125
0.02273563636124336,7.073698839484279,8.085053405445658
0.03793148514673861,5.5680862333628145,0.3296308629473099
0.0440316698717242,5.970971910348205,7.104995544617743
0.03768003301261435,5.825749794383424,8.321196066946964
0.030755883177659073,7.3493546617723595,7.318726394043224
0.03970115198509099,7.852936991740811,1.0415113930335607
0.014276462662144412,7.899792882199867,0.7605830868911678
0.0071711178526568725,6.618331130925274,2.6488097882571737
0.017807492156396182,6.096163918385504,9.10311997435312
0.009400480307686504,5.054499908333549,9.168970147620435
0.0313970357437924,7.659215600047732,6.575685118206232
0.03485172257350523,7.392077890054604,1.246791487214255
0.02519428367813875,6.152452600313317,7.657411267466863
0.04367290040690814,7.72987190758278,2.82904238577912
0.02677696385879036,6.746404136622727,7.712489999652318
0.018535962443595518,7.15598824924748,1.5991989989465338
0.026707620426105236,6.710512078164577,3.0080756827351482
0.020586094689899415,6.561465219637498,3.018807498920133
0.012257189321970325,5.128139795888347,9.088759424318836
0.005026266233647137,6.323801589437778,9.628748089442379
0.03329178124994328,7.4564101017423,0.04016873106136076
0.029189684864108167,7.016944751730875,1.9022463037852022
0.009829196494592636,5.330636849606233,0.46196028755200014
0.027609543364661083,6.893734241890181,5.4382368346413905
0.04708935174082396,7.3205911297726205,5.635970231892725
0.019615188759076464,5.03584215428298,1.7072601666536102
0.025893073496402685,7.233384502535695,8.884111071561852
0.028450249474029427,5.288830204395929,3.3822761337399987
0.024886459554249448,5.175494077473312,9.994950056358022
0.046243634741889666,6.556279845540606,5.97118183083973
0.006285293155410293,7.823164983468375,3.3174612452609753
0.005007840164970051,6.555143979469611,7.604856066929235
0.006704395182116758,5.3572492458000855,0.5430785529787874
0.034323237189302164,7.293661297501686,2.0648776214683795
0.012834256937902128,5.930999154611657,8.442515276417474
0.01827895838201311,7.80058300534469,7.999955168252848
0.02359181276744872,5.0982105856222635,2.2848808814589274
0.047796520327010435,7.017066495486969,9.583129284722713
0.016556441218838553,7.90924076656036,0.739816068921122
0.019322720146054496,6.299880544138565,4.501220304195506
0.041181503685459475,5.438587209692163,7.726883374771112
0.04226878577243731,7.439797573113681,5.8387525834362295
0.017074740961856738,6.85829241699142,4.677535309992825
0.03949662079715073,7.6123714526769515,9.330265397343853
0.03146504250475576,6.963201287273259,7.504880640783471
0.045310622839801445,7.31707888580264,7.526634751488057
0.027531670413835026,5.456323308253582,8.196477962579037
0.04652367504360389,7.131855196317025,2.433032221285397
0.014962157129732978,5.066659511397696,5.154446856387701
0.01999120636902829,5.2737805121159615,3.301621179820166
0.014710142433802182,7.467324145352842,5.392765849516748
0.024005342346141663,6.692086842434339,7.921207058872816
0.04218806926872084,7.003903131242705,2.140147205895654
0.022432742904003006,7.251043105639308,5.6035032935830404
0.03480735643079832,6.992259655628031,5.53243575433883
0.0191432815487798,7.878998849432572,0.6540781910886051
0.027366539829452557,5.795921700228893,0.16943721891871766
0.043988856382867585,7.638456071553806,9.639335975298401
0.023611477831578423,7.720067170773081,5.299685279382801
0.047640252768251894,6.524450782094334,6.699760301546286
0.02006769445722678,5.457653716169249,0.7970802906396146
0.012960530594066828,5.894535669734261,3.2449683603908386
0.016793683536883815,7.704425290584055,8.58431162229552
0.02473841566924181,6.682132187054044,8.43004033835617
0.03243069311906872,7.124462887916394,7.183031930453614
0.005076092472574578,6.644585101004669,5.058156486375437
0.04113523785153983,6.190364059417831,3.9219269421151814
0.04714583548205466,6.079470349278325,1.9934570182254419
0.03123894924751466,7.2017994166990915,0.15596612847432967
0.02367750069896392,6.891450541317105,2.529177594214731
0.01318808943989165,7.698460855914799,5.276592224350534
0.02845785434225272,7.755483230529859,6.885523751979385
0.03756532255934786,6.552344168193712,1.604253609329267
0.029245947942109315,5.0585058439148725,1.6800099948462377
0.02778975406778136,6.035884827428016,3.639763516156571
0.02594783367703082,5.712353680053971,5.687617775615611
0.042068987357522146,7.530460077578358,1.1423081497894505
0.008718877051361961,5.5265211672841525,4.514911960344213
0.022867425753571365,6.5759653748696625,3.7990734665063863
0.014597057974895845,7.356163056583036,9.36839864472753
0.015015960944182068,6.5025437720191634,9.783782410852977
0.03485659442564937,5.754028482662221,1.6146831204881573
0.01028738624005613,5.8711634280656435,6.688605189371052
0.026470115244155587,7.334991579536898,6.157908816740962
0.013144967352481968,7.534909989384788,1.0768463413261153
0.03050382596965659,7.346163783824832,2.878843981551581
0.03294526764152938,7.606617983737428,5.6587043904163
0.026942514335709364,6.808961101979728,7.943396443340851
0.037373132265257264,7.01564430770906,5.9613920253129224
0.016218587370427612,5.9112397525667735,4.948752921322238
0.021584168678132454,6.603443809142923,8.687963373015776
0.019456657411988338,6.515370946706508,4.775027293549927
0.013190030033117313,5.243598115580684,4.1368833199388675
0.030658575619356872,5.5942114496923905,7.293067344879695
0.045913948809400605,7.750437931112334,3.9649925696171096
0.03978478420776964,7.486038135648798,6.631930697498966
0.025994814834634644,6.600780336764746,9.744081499996122
0.0461932745186295,7.661394719224741,5.5424773821144
0.02862216975240564,6.155262130130735,5.487585640308121
0.028896999387514416,7.705477916552299,7.054693275955971
0.009486544433742656,5.7514624332264574,2.1241575892697995
0.003554690716336917,5.463689763206779,0.7385314521521424
0.013359840771368087,6.939980361699892,8.023761887890608
0.047348102822694776,7.034767733861848,3.8875303665818137
0.0016183815540818547,5.241777119176776,9.860483594873141
0.014873180306282447,5.44155956251916,1.8516864708053549
0.030564308786031048,5.509573893003115,2.4496054448366533
0.04079141962277034,6.501830072616949,6.886753582381346
0.039112343371405484,6.360078050338723,5.42671529946249
0.0066378331724143095,6.383192242390603,1.0982191235756755
0.002245809562851858,5.225804548605175,1.5805384675405176
0.03247756531363151,6.216482060308026,1.8040108062904137
0.020783612121543046,5.468860300060401,6.326727437533135
0.04548646692437001,5.278280499029441,6.981699209630302
0.04357291199851479,5.683039564692449,6.884360564495217
0.039716991768501575,5.875832492512888,5.629213767533257
0.041073318108608925,6.914993074216414,3.6222220958077287
0.01837625726586939,7.846760491689306,0.46388013527828287
0.02323835632295153,5.7475564897299645,3.1298122178961796
0.0335530016323982,6.5189127135721465,8.54831859446422
0.029655373470726967,7.193124587183004,7.3683760274459695
0.02259106501468098,7.046933474386918,1.6232083547149223
0.02447749376622111,7.891139258786815,5.969083383378962
0.029630664316491376,5.863965422354858,0.7467965051839975
0.047982672632588326,7.095534688316908,6.855856204738777
0.02235234924894662,6.100962130079731,8.516823319236353
0.02749600251515981,6.883305693712389,0.646302134895177
0.020978990698509115,5.013009283124987,2.108778964182515
0.010544051579151165,5.974890369349753,0.9233072779557228
0.012423456652209848,6.015787119358163,4.058579515493483
0.048182093488803646,6.95748057378173,3.590308760335279
0.002835610250884463,5.488318842084612,5.190708334955288
0.008998556243412253,5.992356911686201,9.698801508537713
0.005369457793374205,5.582893888806587,0.8145431010873805
0.009933281530392092,6.41378273261034,4.8988693968252335
0.01955388721934541,7.994384350164289,0.41812017160876125
0.022612208099477605,7.230572432593386,3.6952286331735062
0.0029702815382472714,5.38002384500237,3.3153781019391904
0.00015035635672398518,6.341829625589631,1.1379903164662564
0.03228287162341603,6.551138047400973,4.135361470529036
0.03346949516920659,7.843308235058087,8.456271220971349
