0.029382955756212664,71.3107602349656,99.51568263582466
0.21289411373793113,169.0688034504323,-219.56326319693454
0.32188538255802174,-29.87384533323299,-75.34242071296495
-0.09802980042294285,37.87153422796571,-55.175228452311586
0.17515920352257902,109.12415687232541,242.14700567830954
0.1584448135361802,107.46238484984994,-158.65852502378516
-0.17436824186822852,197.14556231383241,-32.84972652175977
-0.06554715062915234,-46.62852200331724,109.0194292703984
0.47020695593621353,-55.13356103492807,221.756111364568
-0.02150199648751705,82.61779766245245,-86.41909527888055
0.20245310937823152,-287.5447231477219,249.64872393134797
0.9169503191510888,-54.87716095446365,-174.90282733850125
0.06585831507111675,-148.63485170989506,86.98181396077501
0.7290731032444016,-235.12962135413736,-115.55677337707317
0.5478658806003278,-223.99605673038906,330.5501699095686
0.16118484740067981,75.52118316224663,-9.530692501717724
0.16585829814864772,60.5883805503987,-35.840656673904505
-0.12501069483881255,42.61101634353996,145.51226631794822
-0.2829134658809517,42.01501873993359,262.015508364787
-0.9719286545467962,118.85236430310519,-7.833923444632053
0.18270371780122271,186.10727277706425,41.71363305949349
0.37982683808971746,-167.8873922424772,178.29372275271353
-0.548414656271961,19.122898813500697,112.63813853276532
0.3241709372417442,17.498444467331396,-206.8095918731603
-0.02492853321130878,158.80449161130667,198.37968925537984
-0.39674689043889383,-152.72769258031514,191.262095587815
0.5574470425112863,-33.008878701854115,-151.47867356859618
-0.25947391890438426,-3.5277565222115297,85.85865415586179
-0.012328351920078667,-314.342422508011,-102.10233694768563
0.767394211885368,178.28737264599044,157.32763086509408
1.041437737852608,-271.6864178355099,-29.402611455341376
-0.1257448252428635,120.03320628134442,328.3461208839623
0.3877352722873669,193.8973477838942,-139.22605804778968
0.2386555527248507,85.2137281854565,-37.478848878686385
0.10426923158745054,-254.0813443551662,-176.70602306105562
-0.19997967334797734,54.15315064737416,-73.51783061860502
0.11684651127108539,175.63872683969683,-188.68570762313848
0.48573522156423393,-10.627396126331416,-56.129739220203625
-0.3122821428299242,215.61654502576118,-418.5396549672247
-0.8811189517384039,51.21212691505601,355.04852128945873
0.3501869241608938,-71.2684923022621,-83.26274505112573
0.4446562080262209,60.24984582825411,188.8657693720039
1.1659273816691895,63.93210508919134,-36.636977667916234
0.4395016921913639,-210.29800598432092,309.80060724400585
0.7672105120528563,59.512201037497306,70.82176965904172
-0.23881969309990053,261.38751837984745,98.86372320017855
0.2751276974246286,-308.6816706155236,183.41039596016947
0.5395914528454311,-214.83504758332978,207.22547876239764
0.1118618851673378,-177.85025006625753,-306.2260981175057
-0.06268328809889656,-280.2951892803448,110.89899882793554
-0.21563124432531194,-78.86196501832366,172.98038827216018
-0.39838638287508005,21.868122482239617,364.8146495090495
-0.11437390488732124,-237.70104691698032,-342.4318284246243
0.08477521083949213,27.880461627819304,-44.032938102130714
0.8243073721708609,76.2770973746482,-118.16299988136878
0.3510541194073619,-401.95625264889844,100.51634901824711
0.5513826201002267,131.66616644369296,-323.37547149539876
-0.3452656031072224,-190.51761704911948,-479.30961031522463
0.5588811474246808,-82.9081094967876,-101.2019158787847
-0.8548110854437492,224.55102005957465,226.95091282160362
0.9404014215348553,-56.82985123513069,-120.83419011668666
-0.30486009583563684,-226.7458018348174,415.5821739521957
-0.9448742272733026,101.70930350320847,83.74767003230353
-0.3073006471696012,-171.78824267973508,167.26359350550106
0.5140189739886605,214.54367457572786,-111.99428292932538
0.3207562205274352,-170.67031703829016,-278.00359664477475
1.858556464780396,62.458231496938666,-221.21441591166433
0.1902548173453493,108.03461297570776,205.84410411257198
0.48836207805113097,64.9544864953719,27.919109728122258
0.6217422008574313,139.05419987956512,23.043953797866845
0.06518792677596266,-115.91022588963247,372.8444969343278
-0.06381279588958044,62.9724739135121,-132.65302416077049
0.9182098006060175,57.30148696211238,-320.49807616344503
-0.2687602885042824,-195.24110022289238,-150.1446549720362
-0.17985745299041384,-157.826423136151,-167.7487730121158
0.0603433930897152,-17.69199177098311,-220.19213193676075
0.9203131386738936,336.2438503019061,-86.39906103283987
-0.12578509643406371,141.3566878396499,193.09002237254523
0.2562135755221352,-99.04302728456,151.31242518107538
1.415362836558479,-88.4032002074026,115.50602684314471
0.33184603298958143,87.08753513016046,-169.52021697791503
0.5258017705157615,-202.9740502247105,-52.01852048797267
0.5301839776465737,872.3300568871164,-246.70739327924193
0.059690572509009054,-99.45421918061102,15.197552270797141
0.14147442594736273,363.02668942500577,230.7341191344047
0.17518537041726612,-105.88560982818227,-117.89367735753744
0.32180513074747963,253.46140035061177,386.1933525590984
0.9968507215386726,332.6058902448742,-238.0432008467452
-0.40135675597800885,-199.82342172339537,-43.187120047253444
0.4518433321531076,163.80524956820219,105.42429505111201
0.205110017961678,-197.8838210902344,-170.7279465977068
-1.1639954071174174,-204.7313454578524,-163.38266190701563
0.11762890981812468,-259.4989782766002,100.66571350963525
0.5833720017062298,-137.32714163796106,-314.0381931439025
0.2734257811404797,277.22256930356235,-158.41227083540045
-0.469798655062546,-119.85250199058753,-94.19945325343274
0.14531562550687485,-128.50387065072474,-364.3129869940859
-0.35837880091097224,55.79389630348679,511.586580983773
-0.018285315420080134,-71.99930849818105,18.61999206531802
0.6165323782411666,143.9390848396345,-228.59116272106274
-0.4555533042518049,151.34475468804703,-152.91146110712262
0.6371308724414155,-65.28192578886191,-161.56308434966866
-0.1622079448374204,216.2207392570393,193.04878544331433
-0.9115203917383894,10.478756648501165,178.64228141550234
0.8329663282285307,-197.18392653775226,187.18360166991118
-0.2892110878767515,47.496515580381484,74.81334180015395
0.28111288920037886,409.97196374846806,123.00099891233516
-0.2442466191484256,18.28226119777699,-53.38489717686201
0.013153529475449649,-435.15190868863857,46.8732137355372
0.38150170614454393,209.1161210311328,18.901420304727957
0.7654588078217337,-184.0766946662385,-45.76257068631917
0.47325558866736855,-43.291426480204066,-101.11278981733618
0.3236275787685895,-16.344089707712627,70.62134368198437
0.011708748655867324,148.37722766696575,40.455908690283415
0.5687579806816514,265.45044119751515,-169.52427078653562
0.5846420643371368,16.42989139370034,120.39722407946591
0.5158356577682273,189.10969245577377,103.55271489001127
-0.19401829205108906,57.132610732980595,-151.34794226799534
-0.2546421273142342,323.23008310484323,127.50107846468201
-0.12377386861348527,120.69621502031704,-330.70213328518105
-0.7909793653526185,165.65440506160672,-42.38618640991759
0.7473311698748368,-168.36142824165313,244.97196081835543
0.6558388859110738,523.8706749294176,-192.56074412191765
0.573144239828064,-224.97259737730903,37.74251558851895
-0.0191420478529557,267.76081934251755,-79.1776378633307
0.13660047258354147,50.27735100524201,-94.68847354035994
-0.0645464411857099,-121.30599791759802,-353.2470762740643
0.17448407603856278,29.02372077716829,38.246103555703
0.1812898446232478,169.38266210679888,-26.02350717853351
0.6741844607873623,219.2512877742178,66.19320213025856
0.4059914194369155,-165.77263075588698,102.75030315579762
-0.37965153049984585,148.63994753286852,-27.08181099370307
1.5341609721233236,478.7915405387718,-300.4713628148525
-0.07956663318986207,46.81732061983135,-7.100521730359073
0.39071343774550993,386.8975073023318,-146.88569661529237
0.6354748248124162,73.59688938382727,-143.7942413983916
1.0923621888782775,358.0629476529487,209.35440409019904
0.11955282207217692,99.39446927065356,-162.49641837824166
-0.5910840379109226,42.78759012215933,233.34444937608842
0.2677063213710986,-0.7667867899283127,433.92239015217086
0.2188271479591305,-97.24232632897063,151.82920261858413
0.2418664520556463,-263.83230831241764,-57.730536590900186
0.17227084540225315,-28.58732624254784,204.48460663817966
0.13154798592657782,68.29105459942222,-32.16340588881166
-0.029988441806627436,-404.2925862616797,-126.26739735772306
-0.6398416660377662,64.45367801732851,166.00174058462835
-0.1737721502401015,3.9429031063331053,63.30110788521046
0.6840649636418841,207.35752762791694,40.77853810563993
0.15084907029437333,-157.2754448670348,203.85540587168242
-0.7044211606773794,90.27363716372543,-557.2034494359301
0.8685865895606133,135.40137721286482,-158.75633983931226
0.6865327192273261,-345.6824995060493,-106.4280521267544
0.23925482475722054,-73.27127968900678,202.00828712556054
0.06960738245165654,-29.044283518926655,13.721271324343446
0.8139734411986963,82.16486676521717,127.70701843397418
-0.8455506624352291,-268.22418818365867,74.18969561636918
0.3211328821729083,52.508282427530915,83.42603141824866
-0.7201439385759285,-248.92668569705597,-281.95444386352835
1.1158190826557055,-212.022119127301,265.4173425858653
-0.33123023779097,-345.33873246576536,-243.14714509050654
0.4641646948329111,-25.489835049230607,275.3970622848638
0.5318958299037282,141.64022075426982,-363.61006269489377
0.29947688586332977,84.69739895391993,-165.67930663836995
0.9337246214579773,177.87365493594044,29.31035397625701
0.626943191025542,164.28751992471766,107.42326768442123
0.10142000774868942,28.703152224085056,-53.26940639161384
-0.3598520885082817,117.29891794020264,-250.21002416562266
0.6347271260855729,-40.90678968171082,-70.30552129487246
0.755570887618102,110.81229665555993,-51.90346350070101
0.8084688232084385,-424.1484219882466,268.3942913151439
0.967229687837766,-212.86870864814716,-154.16950913894917
-0.2135703343178677,246.13327819655737,124.66085382767893
0.3015627109613992,305.131598653184,72.81268159439614
1.2475138132182935,299.22332206836245,4.6510921212953615
0.0873517398707409,239.4444041439673,107.55106243360784
-0.17203732428601776,-49.36126165105383,80.92380186080491
-0.07545878868349981,111.57909113188929,-72.45724224759613
-0.7112694709427403,-165.8423460727536,-340.5884299355432
-0.7591786114783143,-68.432678275412,154.75889856450098
0.051297938141364324,284.8309682385536,-73.8589540730045
-0.017205425048795797,-373.10814857220004,-202.08929458211534
-0.5465785245228068,-203.24397235089947,-228.03352874409515
-0.14463478354340015,-41.6241364031492,469.85936890827304
-0.6952674514301451,38.82333642203769,0.23280370738753983
0.902137653226299,424.44259120233704,21.555649560746645
-0.25566593795746995,444.1304766307166,-51.174498035631
0.5199824477775467,76.2570229238968,-134.83306953388112
0.38965271569102133,-195.5424000597848,-46.05624591182193
0.574409435948757,-341.8170316097558,-0.22960178111612428
1.423556396330448,346.54595299798376,-403.5747717787451
-0.12809897792772673,-13.704346758344466,-141.5788260806394
-0.20591142953214103,53.533207780610056,-184.6198367867521
1.259716660299524,316.53748559018425,4.263675363161147
0.6239374542409379,327.8016302392471,-3.0834207822544624
-0.4852230963484601,-95.5830681458245,-35.90759187192757
0.41423788446895826,60.151823856010736,-33.590493454864436
-0.16838712994644445,167.4107494311898,83.1627272960675
0.718732861461929,-19.013376642666195,163.26912931693744
-0.34098575013599136,255.27412029965325,442.4845111836115
0.5662420856893897,-183.94598352933608,196.32872563885255
0.3487757621393612,-312.173443339083,-149.48979396288468
0.4584181561906272,209.13937676295026,-429.37046259587197
0.010566231954110994,-146.9092729354715,150.30817105053694
0.46581880027056827,-82.5689936889539,15.601869808007457
0.6157854084148917,19.33478759492837,222.4219493580544
0.20826697368794184,29.424788474500563,-100.83481873597839
-0.12012978553494197,29.711001407759042,50.36490198446978
0.3891880578751946,17.76839427690245,-136.08393169888552
-1.077718599990712,-25.018976222934054,-68.83029967070506
0.40500022931772606,77.90782935292387,-349.86282196497706
0.3189500846284531,-177.61267498540937,81.50838320598098
0.008369789356753532,-304.84308762643093,-293.10376789436606
0.24570882493835866,-116.10437512810023,300.926559786875
0.6584927524592296,-145.26677419228383,-36.13600568000269
-0.19222326555111502,-0.7337419401158236,-103.12171222569407
0.6936948253599866,114.2960086480339,203.95014583435227
0.2267642998634994,-265.84185011252123,289.338632951939
0.29046988832771803,217.22461220629063,370.2677976893975
0.37565786270132906,-19.19107266904037,81.46047741611635
0.31602451522099834,10.819914763331246,-204.11689869052344
0.20416339158068264,296.6563739270385,141.53770077157102
-0.3813812843480699,104.40918588083949,-119.46905971613262
0.29428088157808696,9.1651830616191,7.054394872059108
0.7152276641770678,52.587452889783336,-162.9608347167344
-0.5026073990236395,-143.83111264131492,-24.585585437429728
0.13532097919329356,-285.86246847360127,-46.68309441757362
-0.9357075274771802,-195.82271251585252,285.4079372213502
0.03349181437876067,-194.94275266251697,-198.84417948173677
0.5764909336631978,34.30586142697228,32.2625431757983
0.05049106947083226,359.8875697833749,-98.3237994571151
1.2795937814744454,-137.44097306796635,0.949656031035884
0.36114665473673874,-63.97649249075865,79.93530904163208
0.13031288602155225,-46.84106375111483,-51.98006390014515
0.6098765816056401,32.3495735904463,-90.65823092724342
0.03487530987042228,-128.8383250509489,206.67153370362485
0.417800711544517,-314.50881840161225,-2.2859199325211645
0.5277389071701806,391.6904259632913,-27.240756839927787
0.2533023592318256,57.90892376962137,-138.81372487947888
0.18036732261543104,135.97405418031562,294.6579019135833
-1.3845607989402542,-80.73260446105917,10.442158738191148
0.05315898720396839,50.89085484291015,-207.51974253994638
1.224209755217861,82.4688141958747,-385.65311687578634
0.21024025489222944,226.01918566754216,7.230624664699746
0.11314276834280719,238.05972048943121,19.55717265005115
0.6198726160393118,179.33895560600743,-167.08884603467604
1.1647119977970704,-69.90982205553044,271.25860035681006
-0.5225647335763297,-288.7101515171339,-148.21521129406966
-0.40750920226808324,-94.07939513410972,10.108259090637118
0.10881970793070289,-173.51293206161446,-118.99765661262948
0.9093152784704803,-254.39385043961587,171.84510778667908
-0.00436619987850978,25.21021987559373,-74.80754794188296
0.7595556546667221,-218.93220846697142,222.9262616811142
-0.13918611558306926,102.43733016256516,139.3494438639507
-0.1427153279643235,160.12179262494507,88.3449412287254
1.0203652546640143,45.4743377612539,-83.78818919162653
0.4821516048992334,70.90518144920807,-200.83005744466362
0.056921933256420115,-94.60623102250364,158.66235267527665
1.0911394081324317,171.39158506202764,37.9260666335816
-0.4140147251800104,-1.3401200920021923,102.72785456001824
-0.37048606178806437,-158.8715549004289,-16.76860556037139
0.22510959174949982,-122.82702594663972,26.337372435725655
0.2816681051201796,-3.9760463361621547,-384.8120465383919
-0.5987491670298846,184.91671295536557,219.70793557803012
-0.41232747651379204,-239.22587412000436,175.04536295818107
-0.4694140332349675,91.4270031244569,-56.20618876726942
-0.2313740623583057,-151.0191130978218,-223.91734630719665
0.38281483057282517,14.130790103891869,96.36728278511781
-0.4962627557536861,-217.0426230624193,-328.8229167627146
-0.07046638657014181,3.538377481704534,-131.26883771188886
0.8004969599232883,-71.13050046770748,91.2635490768487
0.9503663731513168,-71.64008429481507,-27.01231107660449
0.09308288449146399,-228.02694398908702,-94.8870322828194
-0.5785076777057443,160.66331281032572,370.3197549153981
-0.41770248754646816,149.28365887094765,21.155812195176953
0.7575967704156177,-147.02038607694084,-234.4682427145564
0.21622791425203197,205.3543905845117,12.757825921282361
0.32901680747094086,-229.92042920768313,-61.647262069728626
0.8158239559494469,164.89105071380675,-301.4436759492841
-0.4983388920790455,-60.39210598356956,-93.62419929434174
-0.39303520312572054,183.56195350522304,-273.6188337369317
-0.116457695309091,167.72530899475956,-236.5633129079581
0.8292265728948756,89.30078895733016,335.5320855707525
0.36684088566871487,-200.20408689410428,13.36689386199402
-0.3073756717081663,-127.44003508087349,-233.47899656887924
-0.39589713264575005,-43.31484333419927,2.3190295889045056
0.7753896806305747,106.08433520944543,-359.70975240337657
0.6111573819283456,-142.72739620862026,-107.03081726250517
0.5147653302107407,212.0329495110352,-366.8967220948768
0.6330925261939981,-368.44956825176996,-135.79910305486317
0.6625057771723917,88.9269702939403,155.99427176323138
-0.052719886510502134,-267.1831769198908,273.05577672542597
0.7416312314837425,190.6598125600621,297.84331276173435
-0.19134359036857868,138.0047437604739,-191.91051175447106
0.511848363392432,-114.4713816117531,-62.68072935794772
0.97937055384653,120.42284518695969,-308.1424099637604
0.8516354304455298,-36.639828550316054,-151.7809224608384
0.9662060484467847,-309.47530379196076,56.78839878563048
0.7527820880464722,1.8886093071062038,59.76403173708869
-0.5738791273223303,-205.2330421476077,-48.42743074851529
0.32188549502608743,-70.22996891726108,-16.038882285099813
0.44994520409627425,300.41468250557773,185.33532732463988
0.5288522362966837,-192.23926459669082,-136.00299122859832
0.12662292548952947,124.65181598022441,92.49433208106899
0.7846490116958247,94.259211717098,17.673979808445438
0.5652645243341208,122.38754385967428,317.5848117973477
0.7682456065566585,93.54046549573701,32.06839044595439
-0.12291089287575013,36.13068320261914,40.32265566665645
-0.5305055055178907,-325.4195983849104,52.33677173740831
0.7500209771620339,181.92395662509796,-156.45679886957853
-0.6952998460807029,-32.22160852197672,-395.2912558734027
-0.34375202284179446,151.04818721664137,-232.1914929316382
-0.06763994368666454,-34.55205101891804,87.93335658025737
0.712112438573085,124.01233398071709,238.56801054337748
-0.07746105130396086,-9.34049878921871,49.19191600708811
0.9527362290177848,-144.11244693359023,196.22706424803917
0.8358812128604529,204.1408931641011,-436.72185465118235
0.07565393055186657,-23.365730569169163,121.31583760387332
-0.06302354082315348,75.99221469621111,21.176362993424032
1.0148349333149176,-3.5443094712170233,244.45763415908442
0.6542651951836544,-300.2147630126933,262.3860032087322
0.24972121186917023,305.98403379589803,-144.4422064886022
0.2882758870788118,195.18726383655945,51.511343431862755
0.5602780069048752,24.323117492204826,334.96194650507437
-0.8165666534225984,59.786564326620336,263.399567400608
0.004131127959935338,7.6525253865082465,296.3452962464652
-0.2898186060066029,18.68753142966933,-675.1283675174664
-0.539199658220753,-16.315205138571844,-58.43032382735208
0.6726176334577967,-44.37534845334667,-47.21156831983054
0.15581696693698913,224.7166808070724,-19.680294677147014
0.05098555210467462,94.91147323883875,153.05173753191548
-0.2426209954487833,129.23628999254984,-162.0817433176785
-0.5672492300137129,-69.88745152186053,178.51587714815759
-0.3009145685441014,123.55391863698317,-275.60505082153776
-0.1243390279228086,13.300779661298407,53.90081421457516
-0.011118075525373333,416.9251209807938,-345.59402612080106
0.3902537163702734,-112.12176175795688,-124.72915090482995
0.25040253226654174,41.89747722576704,254.73078959905808
-0.3756127123303106,79.88882383058073,43.86408866911463
-0.18055125824736273,-91.80051944973222,-25.376178786185637
-0.32924395217867725,-424.64967141122133,93.41332633746966
0.7289741647288661,-260.1789386157868,134.54121980126212
0.10124730614097074,-172.3064214726885,-38.536997379434624
0.38595260161579253,381.98398983194204,68.74788693170255
0.8178394021935311,-53.898841504939554,-86.79849865756756
0.22320887798842334,70.23569041284223,-178.8996730258121
0.26201085846739314,96.33152883327982,120.88528634390963
-0.9089691332779495,-147.50348841721896,440.0877020472551
-0.3060362389970204,139.14440692871293,55.85001696225027
-0.13924459724136806,-95.56443085813598,-224.74584009847152
-0.30053673450625956,73.45817371816018,165.61897071624608
0.9146176142446549,-92.35683831743383,-18.448666589304636
-0.17785809215792148,-428.2839727915247,-528.7942419875535
-0.12507695787898232,50.418521258124215,-72.73424143647868
0.3512722023781494,-102.75688350208088,248.77075638659414
-0.3166151667425889,-275.3150034301601,109.58334570455679
-0.12987714312870752,-135.24189301908896,-23.13749541976709
0.7510680981757263,-330.02046141139914,373.82278128078804
0.14922956696218975,-289.13018696417606,-12.078337409433358
0.7173543511241816,-212.83038761941722,246.7347970754194
0.5249154385989433,222.26323577377238,-35.93327779357741
0.09859099829379968,-39.58569740165091,-221.03138423367898
-0.21209072931621958,-60.717503763693614,-211.470458533746
0.11085476054552403,-23.66926790385313,-160.93436331960456
0.3805343431581635,-195.11928166131128,-88.40008618936452
0.6503737054003473,39.28885160535622,35.3447819939819
-0.4285937391054296,244.5859988560776,-17.660294469830514
0.6928758037606806,-233.91472465716353,180.11537103423484
0.5146121517123582,-73.99498026080715,505.1888897675593
0.6860752718196209,344.24616587116554,-94.42036133611693
1.2978583281043632,-6.341957557054992,294.1966615191591
0.365107277723208,199.50194116660452,17.298557639640094
0.34478767548505895,154.119322589326,-114.90196334445295
0.6534777795592737,-246.73933131126384,-153.76244023296826
0.06370440325624172,369.35213674693716,215.46620709782013
0.19546138647742925,-102.60889081535578,-147.50063246796407
0.36845046917698876,118.41017264770237,-138.52288280797868
0.017519748897111248,304.1559453291541,192.3541718220636
-0.1126812331098403,5.519619251507465,-143.46774511657122
0.7937685710441327,128.80958267411646,31.84392138990702
0.33761298943722273,193.88776314023107,17.204304201250224
-0.8966175303140205,-86.76034285055451,92.1789879423172
1.106275316542961,142.961668253823,-44.27016376948949
-0.017701316286306112,-55.02234496737414,-172.0319604715409
0.4068960341913602,49.217728757162824,-252.56288109917486
0.6866766300067947,3.393234280415948,-116.60062057974588
0.5743312818505859,22.038039755422293,-272.20800892667694
0.15958164297609861,-89.56013501552714,235.12967444163095
0.6239460057467023,-487.41745906830306,-17.979817582607602
-0.35626941567158915,-30.35373525345395,-139.8555970855385
0.2184010319887907,-34.7939681024782,-301.8759655137922
-0.12880703580283642,-217.1943608137001,121.20423440217425
0.4798589021846937,41.08818579315794,25.95815339042973
0.5728401534806984,-92.10785009574842,-34.82546153045707
-0.07621265226108431,54.66753173242173,94.81487670903186
1.3659710955935935,169.03558998274494,-303.3748522434332
0.9455097085154027,-145.51328294673428,-127.89904278180366
0.3937292142027842,234.4466260621879,33.30941198059209
0.708962924750191,-131.9442387238319,184.30496246791154
0.8526580676847342,-53.25988271025811,-176.12708180450545
-0.024467403541033134,-235.06575961511723,173.50940805236814
-0.46526133983342427,319.0831741761511,41.616554719875346
0.21037318964684626,-81.55211157457202,-96.11081805179805
0.034164294162723374,-36.40010629335003,43.36446303432557
-0.35888569247131913,-119.22701557507307,-352.87677530391204
0.8585359597825393,-125.46337790824502,17.50698256099398
0.17717640749771235,-554.682507710246,400.3348315176331
-0.07522365918244545,-76.20216292083055,-104.3375184218446
0.6950851029317984,158.84136482862505,105.8424411454289
-0.6142791648381227,104.83528155666657,-116.11711278205561
0.6129846216153612,-33.46143849850407,-17.137457254243476
-0.15235881232900156,176.58648673164393,160.48956481497942
0.3355728576930666,143.54860511071723,-50.87151483578051
-0.27867190684445886,160.08119037744186,101.67941478662704
-0.09483366960379291,-69.72148682336908,-30.821569933922827
0.8202531144092327,131.84302089488455,-120.01209169062395
0.4293680490697095,-91.73413546298947,-148.47027165993563
-0.038171366940454754,-443.3008358663658,99.85495059545273
0.18691133967802462,47.4873860097081,72.47090112568455
0.5148402219231409,-37.77207611755062,358.92514123867
0.4819335369998276,-89.30124253095745,-166.1348636243738
0.2720329329208284,-311.1570848979207,162.4393562635412
0.7419455548674965,392.69914838665477,380.3154657965302
0.16145704226426794,66.37804338357822,-53.65782974969376
-0.6981515176011259,238.24890418140328,-432.1587309256698
-0.5287984869338811,302.5029361548005,-523.0605297395451
0.6642221458248847,-85.8415949972431,-213.56377607143452
0.07324266255190054,-205.46319490456995,-252.09561183238858
0.5292641155210279,-303.42914622068906,-482.7813928624386
0.4908091645653339,-173.0071059242541,-339.752989201764
-0.4777416226889672,217.99823089484528,-306.18678305496854
1.4534270145931805,-181.41480482901244,-102.38546515024429
0.31248040460166715,-238.54620036766553,-49.65911828668526
-0.8195198921498945,-303.54228978985225,-294.31961319428643
-0.3475603147655459,-59.06270838253984,-43.8773326982743
0.6388874456620899,51.58416578610152,494.94917358094665
0.5335708831917063,360.5082934143557,-31.316956235297187
0.1892985333784904,314.7181596686361,352.6024784990161
-0.043428226548349935,-255.61490384155107,247.1387225972427
-0.0742897516819348,-721.7095317505597,501.75460871605424
-0.25815635815445215,187.44174019154977,276.8842413898333
0.29353460993426284,-43.2533012152563,78.42999416403464
0.33946471822602864,91.48293896434518,188.95028021643122
0.052348352906353396,-429.2370872149432,99.86233281463035
-0.01742971953745845,93.55877431672747,-233.82838004302764
0.16473452834036417,118.60472690482968,-341.0323906091583
0.8540059319248581,438.87571347189044,248.23799789368076
-0.2515910944419784,-565.3528507472215,-235.50650623379093
0.31388085557101275,316.05747724959826,340.70896307623127
-0.5148322367989988,79.09398436315918,-298.33187356736954
-0.23687610927283137,-28.82890100391919,-299.5728683536389
-0.5884991884026571,-96.98142300927326,113.58667118899083
0.5122283543761178,-50.12007576717674,116.85165552650048
0.4032678939838579,-219.34506435255358,-40.000161730930536
0.12139779664183166,505.58506348242094,-56.759829795048375
-0.37085048270991566,43.07349740022309,311.2582213535648
-0.29408573115415026,57.902797131528295,223.09556785267642
-0.1706806306776284,263.01853026745033,195.98647621168453
0.20031735969092723,298.3482327492133,201.77141875652137
0.9887126988630364,171.9149943237223,-198.4987058044296
0.6404560139268256,-22.725595278510717,8.708599160127893
0.12369654091533851,-225.82853210591162,185.42057061745575
-0.5492551613550194,291.04302947325596,-54.5363791029581
-0.27714998591392254,-296.3009827463488,-45.85594278066971
-0.7215782929751868,-146.94429518608948,216.12002987471314
4.486689955854328e-05,-170.25572604820522,-169.14449442628148
0.767037592351778,-134.39645370173884,26.216975755986677
-0.10536694604408575,-313.94499904309356,-140.7253078107921
0.009886705174143917,398.4529316619963,358.0655953089032
0.15863175798733162,249.26598861121266,-127.68397459281708
-0.11768444956519564,57.77658790363706,-407.42505236130376
0.1474795734780269,326.1302202895142,98.97786144597515
-0.11210432871063963,-254.51321730527846,374.86828507365885
-0.36259405694431895,126.33912781538478,-80.56639786502913
0.3049019855339535,65.34728929656536,217.07493394010334
0.5449375153961697,513.0106385800896,-255.5976008274434
0.7951432062996293,-72.04872950708173,-114.36594126183464
0.6399949270722958,-371.55519206828427,135.5002973152034
-0.09726483739665603,288.6549676309119,-377.5220270510506
0.7634629297664859,-126.37979089133367,153.868022913811
-0.05904051431390772,-141.96790190335406,-212.84961674589962
0.7026316322253112,136.37820654270175,296.21536829894666
0.14594620724406784,-63.36048626062728,33.55894704676018
1.3667957124975678,65.9553255826033,2.2808593576869813
0.17516688164988647,-341.11335361633894,66.55931560338807
-0.05359661423648593,-223.008217726349,-248.74962611210324
0.4442658377689836,-272.8354200818557,130.55653600195157
0.949588673915913,167.98645103169048,-120.67688875319806
0.46780752571217016,126.70642170188063,28.239831025986632
0.1952144188096564,471.89104845958855,-240.42390398571646
0.7085425871056485,94.38611603040714,199.01977565980127
0.15832812490401718,-203.57533229501618,124.79853557977256
0.3693380742560584,101.43169070561227,-72.89243931317748
-0.17382782429046578,435.9857621548864,193.88433941299758
0.7851612436077959,-5.797390802617778,127.16091600183607
0.16206325052860313,61.19320431069058,33.09053122514963
0.0046059660911259015,53.1352960286115,201.76261224282493
0.15342544209259146,-10.872976237832853,-202.84995707417863
0.017184627845899025,-2.3151041701024377,455.498500349267
-0.11691286773743315,133.5848404961147,295.1052931658496
0.6192012176812729,-212.1969222733091,-0.5234164291600327
0.4082526694103983,-97.28274127432037,5.443276530973397
0.6951461283160126,-133.61283199977422,-79.87062565835588
0.09033867036943324,83.58729234539382,-440.9641227461381
0.4859461383275579,-70.19722835126905,96.08676835025483
-0.0648184012528411,17.362704022212977,-102.73877530940858
0.049276718191118785,-39.860114330277575,116.38530442190687
-0.06946065593694017,-138.29918525685403,39.009532947996846
-0.04849828609098772,163.67755154605982,-5.125297804986608
0.13264021702635898,-95.1192041886565,-172.95448862072175
0.8029224010447427,219.4181436479765,15.675677244672912
0.8028178210613364,-120.3436746479933,379.3224310060464
0.8747573730530904,-200.74310209783417,-100.5020815113871
-0.11694874914083014,213.94499823047286,-193.4771081252381
0.19061879332138407,32.97730744723903,-4.876259986026544
-0.10086868953078876,69.92099403729249,-39.388794380864304
0.504680606676074,288.1646038261286,-111.47491290706029
1.07918728380243,-162.9442197322577,-44.80035713642779
0.0023525064888295644,13.351291216189084,-198.37559116869508
0.3428698721786963,-242.45206380043194,-268.43769886278676
0.08624524510336704,-23.939109919743288,68.89946801453533
0.20351527213921577,263.86699618484795,-294.78268307787914
1.5972628389181738,-35.23495317009816,201.38402770900296
0.3091603770182319,74.15815638475036,176.8625253059513
0.9371317108837987,123.16474962821673,100.16925332194859
-0.34191289438030864,-142.88699491397088,43.36923355136141
-0.0010314293051298662,53.082221047739075,170.16366510528292
0.611256513327289,41.597070652653336,278.971547538633
-0.022015190618400543,-397.03537846671026,-62.83639149630433
0.30128227055436857,-214.3163044725429,338.9973921725852
0.29860557649863817,81.59949616059579,-28.433668188060864
-0.3493147225117765,9.45570879519578,40.03821204674483
0.4595215775782978,-67.68150758753899,20.33707774083034
1.1310246541508693,-176.45648569990925,130.26055584507947
0.17744709656894492,56.79323531664207,-83.88265729932849
0.912164219018478,-365.7771061180647,51.19014710615277
0.30528498757560224,28.11374517794112,-73.3995323582957
0.9454370422497835,-73.51169847113562,-203.94091550909684
-0.33089413169104914,-67.92580712581344,4.813066333871021
-0.031511879862855835,103.04946468297764,-150.580705932964
1.2546793862841892,-239.56216909632596,-114.09883002217316
0.9256286400681077,-323.9684422428773,-33.392084290170615
0.11695608605520898,56.072123065602575,-118.78174530852877
-0.2577907688069622,25.04723255832082,8.670861843597626
0.7941882090267061,53.55539172571666,-55.072221771355665
0.39153895654051657,-10.588542640867916,186.3667384894253
0.6729203789977835,64.52365696218301,22.223190576787875
0.5876909787598625,-123.90676314722539,-203.1346064542883
0.4248385723107224,-130.9093072841473,62.63700545642179
-0.11818431083971837,-131.56305414365002,87.36026551373836
-0.38581939668147475,226.5392872326347,481.3410155733332
-0.17350449043395,-150.96100255058047,-159.7281286443591
1.1549583277073494,169.52581532306402,378.25446574452656
0.6305658585349052,-68.57501572615902,-349.6373415516307
0.1278823902023094,85.97777594930453,200.80652927106496
1.1395659212015599,33.77886715378612,-204.07021016736934
-0.5974277622119804,-202.58289590137153,85.3501383012971
-0.19881120019655596,241.11196875755803,-271.38533598052163
0.3598775709548998,-324.26421982355606,-2.0168540398040906
0.3385237720869473,-298.146249417237,309.6269478456571
-0.18729772857473242,72.0740501776007,295.9096206975903
-0.4557880777900018,-131.05562727228332,263.47156098027904
-0.23567326630598373,-501.13623125127464,180.49707723468526
-0.18351807496426464,69.02542082837701,-304.866553249565
0.43501097004650496,137.00579333314022,34.01739048600385
0.06042098407739954,88.93069400321474,209.28789576941176
-0.18723131744203908,-26.343373449201096,-105.68368794896932
-0.6126437936554459,208.77507142751952,99.34039639088797
-0.25023100819046934,66.5812287635746,17.434200163141078
-0.718496582226398,117.42492016002788,83.61176966541515
0.42366402649002005,23.53120099000229,-217.4167157753602
1.0754485673524952,319.4177347404995,572.1967477226358
-0.014411216999174858,-101.17345146891314,86.01756527366786
0.5154956654753436,102.40895870623177,4.787360126004474
1.212936231609676,278.8141123491365,3.076482132507426
0.4401026124818852,-329.30928818841306,252.26952645597027
0.21287071380347414,44.947846458679855,-57.62139446333521
-0.02470712822815746,-230.28884793726908,-235.3346943189793
-0.15435348078293404,-363.3004857376364,-227.45116066996323
-0.8366600317353368,34.09906584960067,81.68025707856282
0.9758326855505883,-130.51138495950826,170.79618616208174
-0.1874601321484835,-284.90585110590337,-30.903529696372917
0.5433241546907164,183.6849161776788,-172.67859655231283
0.5272455628690016,60.732814821813584,41.82184455450334
-0.22937913836362872,13.694124623186285,155.34468409329446
0.20568190077503123,-235.45164383799647,-168.96715021605416
-0.1650032369256565,-319.6871092555049,110.33776223612067
0.8179749119104556,170.80496097357886,64.72728058547018
0.16175964655442815,-140.54243400727376,53.83785578717024
-0.40416053002437885,-7.059312830430859,79.95060993219258
0.40071544526993225,-201.96381748900407,-128.37654521824078
0.031213033399128343,6.930457557128237,-374.10194478016126
-0.16686418052023128,383.55144461747295,204.38009122470623
0.35739182062466546,-6.3614021989853695,-79.63197415176086
-0.24288949984131336,216.44225121146098,-20.084381566609466
-0.02296634596252764,412.05141411772377,-7.195311659256294
0.6670740023854611,41.44475671779868,16.028585319333704
0.21259705805151105,-30.515798429420514,-183.70798850367726
0.8271159560585515,67.34337231026754,222.36990408616833
0.3889963242472648,-36.9397540345427,-14.417855096489065
0.8606621359926281,269.27701333717636,270.76083919084675
0.3751901906710731,-156.6426380456231,-145.20768625399597
0.6600740004407749,-341.3827005137441,-273.6583922741425
0.7311572810259035,290.92062902202923,380.0990586481272
0.31906976430809686,29.090445706078327,-39.63177654921773
1.1989189847482606,-325.74271054984985,65.49932576359984
-0.6189560724350907,83.40320694786135,189.71568734242697
-0.14309139002981242,37.13422313985236,-19.67324841899838
-0.4873532899075846,79.56240486051222,119.24019824367926
0.7883827598348196,108.0113762367344,-63.35287292216908
0.17089104565762075,-383.0061257233933,255.22725367537075
0.2877010642991248,-270.7189163459194,311.45374754533356
-0.2170764039065013,252.14059982801427,-363.80789210306335
-0.2652192148805759,-76.84225150224381,272.9224330319362
0.355369696391712,104.94110426859164,189.8733399521203
-0.14892736175088672,77.6222382181676,427.8738043471935
-0.009312917227129347,64.44953311408493,-257.02790197035563
0.3293068302076514,344.83366625811084,-234.3785796276299
0.20319604083719578,187.65750533714294,-61.08571915231771
0.6466155022064318,-99.43331000178439,-251.61233068739622
-0.628699133379772,-140.29594657443943,333.5069004166483
0.7938565862227926,276.2041445544291,-202.10974102589904
0.6118724221149682,187.94808848925476,105.51995501526254
0.23796859294567047,9.446160375297515,148.2532564389044
-0.12888735620632064,-514.4907061332832,137.26120674298522
0.1673934666011253,-97.05299477784402,-109.81787485698578
-0.5436580047146249,206.08920080860847,-75.26578184390311
0.013214911087813502,-60.05556014640726,235.9459854343357
0.2168783428975352,68.35699660587065,324.239265971346
1.1795723269351155,471.0536099824474,289.44022326604653
-0.39865362710079805,-101.17610081691129,609.4918814921252
0.6321390831781799,62.45934834941291,1.396593244817788
0.7262220107146256,52.79050798272753,-309.61818821824687
0.36109714129862003,-176.87505310442788,3.6689486156033735
-0.005875226801221434,-103.76590531505907,128.77861442506864
0.19907779123570815,560.1752875850246,200.43382946640085
0.6978496730266028,161.57227147189093,186.6137711797214
-0.18279444580300452,-60.48663137534138,362.90000577274594
-0.4336838807266357,-262.2243141345153,-187.92484872370457
0.16136740248246734,8.345001718721681,74.36141230590918
1.123635285811093,166.67580931944735,-48.72375028368231
0.6495132377020096,-408.2867686104458,52.35400374574098
0.9994904118318799,290.63507149305565,258.6755981961512
0.8117886197030424,-138.08191142247142,6.428028878228799
0.21327078668305782,228.61081742421985,-329.9012485471042
0.0874072871091014,-88.4936317365778,487.6820292418395
0.28386461018068776,-54.08802797607417,-117.88351865321867
0.13025077321763834,74.9398252516755,-192.1503035928182
0.27955119783778243,131.84827722351434,-70.88777431558522
0.045228540712961895,54.443788612380416,164.84823498921426
-0.40323779567303325,169.3858822085488,125.36388706133796
0.6170636170203555,75.86376246530784,-53.158457949402816
0.24527806122237136,103.08162940023098,18.09141811400497
0.4951844746435518,137.6329133295893,129.6869732008987
-0.37119723967061274,-268.51988428279793,373.6699104887172
0.5439394576524723,143.5334698191103,248.99929758365525
0.9270415029132093,-202.44626745139018,-8.080942343697004
0.36704739518336355,323.96675601085343,-99.67416511085928
-0.5583918185446193,-233.55999415502353,-230.93745170520816
-0.6626905446926903,180.00708915554955,6.857785434614224
-0.318775185208608,-120.99935315204992,-102.92248379539721
0.7625716712784276,-113.4675852415925,249.1267387014342
0.43044446243917617,-209.73255923607604,303.1121582543241
0.8395073024788335,-311.4943901918367,38.06873187471594
-0.15869416056915908,260.0670256520023,-109.4877269752734
0.6360277870891924,-372.17368905435217,-328.23051899224487
0.3784356511731194,-93.04752772702544,18.347991452703926
0.4412175602023424,311.0063677306961,-186.09269055167695
0.33241571602615483,78.52991303137573,169.34189514373887
0.23582309855054123,-115.90415503904914,168.41763566766502
0.31462704803751473,-75.59776147458184,-653.3786620899897
-0.028381867385443738,-167.69510634979804,-82.63442171299248
0.23929347423768377,-138.37832001899812,-222.5447668803125
0.666315042712669,-97.64566475993705,-158.64974291008937
0.7439584820476857,159.56197196343751,188.25528478839362
-0.28420904489246535,121.35843051896549,115.95855296240612
0.12799085287561235,-347.0693494295031,57.51390753760125
0.44806054593759453,-447.03808216369134,-111.9608117887065
1.0071893397193663,-327.3332618011424,121.8864555256249
-0.4049893511937334,70.37010181913685,244.54203329917394
0.9648130496939968,27.97433320965797,-93.76568733319716
0.1163256520412573,-151.20689326749093,-47.00728272440608
0.07515814673492774,418.5060888084624,-266.6329793821603
0.6892528626473287,-346.09003143626205,165.39778229948217
0.5398363422735033,139.40079829533246,665.7562997136039
-1.112514674588158,88.40257237938609,-156.45696510409212
-0.6871686084538775,-5.661041158895351,-120.89603059802445
1.1248508549882419,203.7602691761907,-126.17931552310782
0.11258112224780399,-75.49825331543715,146.21196572068
-0.43334698613737804,-362.9287011117564,-31.894204801396924
-0.5075670931977527,42.76057977698729,-233.54224535256583
0.4705558176293419,-315.68053313129514,-89.2607130389226
0.1470090516221299,-82.16724582475814,-5.745741246207506
-0.09538959347934595,34.94801833184811,34.70934681251117
-0.344930111091126,-80.70770945993301,-76.54284446594677
0.25803293079208045,-403.2636109692798,-62.60806463948134
-0.5790022996482482,-273.9785656119071,-57.73816257146025
-0.5890197920175801,-283.03297660066437,269.7885642338184
0.3818837162654665,-46.8560414301312,-300.7148178794511
0.11957399863015603,-1.4775465228850981,17.245320430058115
0.5612983199396648,152.99147956098167,80.07267300592821
-0.9264134198683369,0.14283603873296724,-208.51814283605833
0.35393039430551476,-228.94137290480097,-294.020003749896
-0.15948219894584476,14.831710611625173,209.40200839688234
0.4482167324010061,248.52489884285927,96.55664374674974
2.0258957341839023,-30.138171962305517,-187.7267061256306
0.7104726667318397,-15.215525536130938,150.59930408328682
0.29049146841694534,-236.30760875416374,6.014504540967029
-0.14498249536251911,-196.87270357796666,252.11848696509108
1.2761925852627816,-257.3052300113753,170.71259127936986
0.7383892969222234,-73.19252055049522,-298.13459944063385
-0.06942767143567236,-112.79492010607018,-101.50954064650728
-0.21591109025699873,-315.6166912146403,279.26008941701275
0.6052897910471866,182.2801905341626,218.52499700189892
0.8063840944091651,-173.04037832852003,234.49255929110362
0.6888241795902832,42.93779801710491,-9.60641462228604
1.3654686090028336,-302.92124478728977,-29.50377950537954
0.2561771901953649,48.07927658935307,168.13580352835055
0.10215273543028214,-192.5241263690344,98.57599207920256
-0.7867204220984827,-54.951234667688134,491.3364833685413
0.3327489187774989,-230.64462592401935,281.327761549842
-0.4187465349364273,-75.76299180541002,-190.76737185456253
0.45856656610211716,-318.3971126310484,76.1216599381721
0.5232640104265107,-227.6550205485766,338.517145873587
0.41267242722191644,164.0860760605607,-270.36769201851416
0.879151621387908,-218.0996864648848,-68.77504601091051
0.4516576755265412,98.49736932964912,330.33346559682104
-0.5591493266046339,180.33090311367056,51.89569012486338
-0.2337860319727093,151.08987096468312,138.40314929013468
0.7866858665221119,-224.16403883303948,-205.52884183539408
0.29086824810591416,224.01648128229192,37.42402540505997
-0.05832098593132662,27.037160095276725,152.73174532524158
0.5795410844861614,-244.6264260613368,261.747108005875
0.2554714291176854,181.49195144348113,121.50203967141522
0.3552559277106062,48.94680576354292,124.67543077169904
0.02335864032902532,181.24958539865983,-228.24372496288444
0.29538043258862984,186.6789812155195,131.87509150844596
-0.5042489521688263,-128.8670091294095,-88.8081852038149
0.577176138378562,-167.87765384053264,-134.96079273997924
0.44017292454740586,26.038171136134203,-194.05908272920357
0.6064438665640944,22.441190600655954,-159.13699716899623
0.3153082798066195,36.748948726406574,84.72280087955893
-0.035433132128667805,-42.531354947656844,-100.53707069850735
-0.059424152665668084,-276.4403356451188,372.2038068672734
0.34173828737711986,132.27788657420004,-181.73758357569452
0.17070115038889394,-159.6097772683347,-249.42925395781427
0.4957900439013024,170.3390870767683,27.70530956426998
0.7692049587885901,-143.13218428479814,-23.78656940373382
0.1261327711399587,4.143198205589601,-230.17187520437324
0.613226560810916,192.55033146397727,-303.6913964368035
0.8085180397147265,-358.9053918593013,-60.807248144374626
0.0724523515187365,18.359847566664993,335.9530607413832
0.9408021776887385,31.53307979941602,-63.464964694340566
0.10176374121640824,459.4722829284172,-98.3599570218487
0.3506248482815284,-513.1974846898947,62.13393064481389
0.9862701862636711,530.1294831935677,62.645910939493746
0.3966037156012612,-208.2315346843078,-186.6842987506837
-0.05275526648924983,80.23153434018302,458.404625912661
0.19547197272793437,-73.62632660886035,-189.88065072391115
0.5731947412274125,193.15363559170854,33.22473291683487
1.0289186656224807,48.3779595082169,-145.44715821526066
0.778795511944846,16.88087793018031,61.11034873437586
0.14980407050580447,469.4678812999862,211.17886802367784
-0.2905902943511375,-115.16819540627701,79.2085341241706
-0.5186620962590489,-305.0639540428913,181.45182810082582
0.04376020751936763,-97.15916143914323,135.36304323269087
0.5402195778744217,-187.17109735462657,-185.6493533392025
0.32502154876971456,353.932718701436,303.50581674614807
-0.019417891682535438,45.40917200332649,168.20448780324938
0.5209960048800135,188.25801758336718,-60.72076133677188
-0.3772136507699752,261.8948452380943,-167.91508369324762
0.1469423874571996,-103.98582748236144,182.9071009820832
-0.8432222158201998,-15.220956656058263,-188.73117048000452
0.6902572241041072,25.898838308092063,-79.37322035097742
-0.33679162075291275,301.57445663835944,10.21349248595664
-0.3698574566833373,180.06765667447158,-546.5425747753668
0.33718518100839057,30.911088774563154,248.44206819718858
0.33392187916704813,90.17660348450998,285.52282659198283
-0.4791876511671644,55.24960257255156,46.432944998105214
-0.5285273335904779,-250.73429580578113,23.88475758533505
-0.1479732612948978,-550.964908738119,-212.5070212718963
-0.5458940340445215,-370.04915783440396,-91.34802713725108
0.5205826572964111,437.676673415226,98.46420490349963
0.9434023938942087,0.6013011225622928,-112.88597654060814
-0.24619059298833884,-265.8299209283844,106.07683094557663
0.0052274715896997725,-88.44630542353073,-145.7348189385096
0.9823716343896491,-115.01085990186779,38.58021706993423
0.019415917720945197,192.73455202784464,275.9184505357386
0.532831616373115,303.97630317901536,71.67871179823574
0.2224193426540062,333.3088744897469,-336.3624279713902
-0.09764984431773682,-142.69740649126393,263.26516288064516
0.6204391817692696,117.59598420944859,181.68031340638933
0.8358974886110979,-1.6567161600716456,-20.652535698821683
0.1010965511769731,-289.71687937449923,92.60305523877467
0.7680034365813091,167.75199061849432,-49.427127057895945
0.32989100438716157,-282.80763367159875,118.80379785514432
0.5193218801861859,-189.82827460444028,110.81954644969423
-0.13634075073729907,-236.99284818059664,17.60998864275175
0.33368995736946105,61.10112042350254,-112.59103376090553
-0.17107147910309262,-52.60436658753805,-356.5819667369415
0.5415866878641211,-33.499061385728346,-231.21727942633953
0.4337827704834051,-350.2900231718439,-75.76465778444187
-0.057524416123183875,159.90728369067793,-233.13710623492008
0.02546229424123031,82.50025919915515,-30.37445267981842
-0.6592163746583188,-198.84553264280788,172.12694588766325
0.43655484851866677,-82.6818162150195,99.73907478635931
-0.18466427017598863,-7.551205071384802,401.5280407151751
0.696296003478396,-363.27930476546805,55.907454074480015
0.020220387934831968,-429.8964819161513,-90.0227966797413
0.26163070970292707,121.46038669523718,127.46411334454062
-0.20374035368590943,183.00398679606332,28.343516393895612
0.3704167752034434,121.06430798033148,-144.6737274561765
0.07812661597212828,20.47648325644573,174.66604314005104
1.0988950720446515,-68.8831534808932,-301.4195003399102
0.5072863063228351,-84.06908948316143,41.434373904341356
0.4648698738918079,-71.36882242724366,-284.32136362781443
0.528150170423858,-34.14446277386239,0.9909932440875078
-0.16760065326461182,244.58049184178032,104.56582172771076
-0.2749769655089514,71.29957155339093,-161.68112266021768
-0.3889105487623881,14.993072819873701,91.37155860544469
-1.205388687519183,259.2719571785288,114.86200630592316
-0.12854556987163573,27.993496025124216,-7.957288791046619
0.4154753079106166,77.84318166174705,-315.6988858391271
0.17199126377355145,66.06200791977844,147.17948914911386
-0.6598090978315476,55.362921351134176,-45.75961163935156
-0.1363751477833972,218.77655770925693,-20.088881348033162
1.0113472650934596,427.56049421745166,-90.30280444326694
1.005765791077213,-22.14697673904171,-61.03972051210107
-0.34339934462290495,146.44109331784796,-63.428877485783
0.9187589653238573,-255.36610040224622,-138.33063370045411
0.08218371177313567,83.47342413693517,-124.39019076122244
0.8160453019783602,-315.0477014264399,119.4072366174131
1.089108980088776,144.4427751079765,206.4202958106528
0.16164902576867424,-140.87613822892402,-192.92033677667564
