0.0018012655113225152,34.26459038109216,3.019009880796766
0.004211261479158248,30.11417255892629,3.796144685477445
0.0023790696469005615,35.32143977985772,1.9887860483003694
0.008353813761850789,38.86811305707391,5.766260370262982
0.005758608458702484,38.47229587639086,2.311390778062661
0.005129631187586878,36.444429852820605,1.6918332189368979
0.0033777285040298656,35.57128208111966,7.204113121132599
0.0030424359083084983,34.538949909758784,0.03383924360888968
0.0021040457575653604,36.80373793868584,9.028926779841473
0.006822307089742328,34.67712853862376,9.573237616151257
0.0022878168273328093,35.36808183435384,4.999880593369678
0.0096527218782713,33.84635457991294,8.384181281305194
0.005602163332637025,35.53675862657363,4.336689085483359
0.00466030047172487,34.63131525696555,5.986494158801843
0.0015014229020373783,33.12641789419815,8.328014363155992
0.008966490045346776,38.68236805352517,2.837278576645147
0.003200992823697957,33.65403619146287,3.5805527920835867
0.002658679446978005,36.03662216680252,3.2831046862308844
0.007462164993209883,38.161293972830954,7.31313051292466
0.005589004260556014,34.26441061180681,1.185826751716984
7.832402374016168e-06,33.54972821361304,6.652525576551094
0.008560739174852684,30.390708752758613,8.318429230061465
0.008959962054702729,37.57552035290714,8.253613221889488
5.1756903290759435e-05,32.238568322001456,7.919581595972898
0.0008206009079260324,31.382924669577303,1.7532826724740014
0.003586860141628685,32.146913120321514,6.240033934426047
0.0014621232380006388,36.348597738402276,3.6429367782927455
0.008314812962790321,34.95295384776421,2.8492825232474828
0.005885218288026179,34.771909453819305,9.338557932556597
0.00947805463201762,33.41791399886214,2.402950798568564
0.0016767286244720526,32.02592993113695,9.863155585853447
0.009869054830310003,38.80301409917319,4.189736142020789
0.0049106434960400625,34.833622028273126,3.9330663026197374
0.00497201574376773,35.21171624278128,9.196032497475207
0.0007112389413089104,35.058617985069795,8.027162350530027
0.008263903046651673,37.298311866842774,7.228592905753692
0.0012349094659937687,39.85133687911727,3.0225362051523197
8.71393523156605e-05,37.4567074451666,1.2631893196866062
0.005628914265211743,34.84655049967813,1.9172964800388603
0.009394451011835909,38.06573468393876,1.0954202737351226
0.006585408114202297,37.276827040401926,5.692174688395202
0.007563400938014323,31.45359070552145,9.024486972933252
0.001594124441825392,36.471266766259376,5.404777741156654
0.007429729909612135,35.25411514511711,7.541978044850886
0.0075775559185163,39.36924409933718,7.991625508293026
0.007992673155583146,32.7169743619729,7.24755237390681
0.003477500733099088,35.79445021754807,0.5412952369530866
0.0005071376765962122,34.24226599060028,1.8415640345652373
0.004277849663268123,33.49558206800427,7.573549057094137
0.005120423671185806,36.6005141305787,0.02701020009691857
0.0020877967456038814,32.64405300929436,9.647417833655942
0.0007595076921694266,32.42409671811263,6.9831965247098395
0.0028496624448325967,30.19292920361083,9.480945966101537
0.007555365410971218,31.077673438551127,2.936869441015546
0.0009523853465483778,38.67330788330689,2.727379465323152
0.009123501423797826,32.62719283277207,4.405591017737672
0.008176640137274819,37.32834161721341,1.2651115352856468
0.004948276285261411,36.779461939525476,3.166581094140173
0.003901041479134947,39.45378932547007,6.876710794464013
0.0024254878137492486,35.16768150776968,3.898473983416071
0.0038070432000794443,39.816983383700894,9.724728411636846
0.009874746525231584,36.72390391146998,9.213405094777638
0.000817044525000048,39.49734272952229,1.2099211730982073
0.002530958994600525,36.1401402266874,5.0962058236811245
0.009917878198536892,38.84307482161319,6.9744372947605395
0.008364854683495326,31.104637586739965,5.029561919564532
0.003518039881798377,39.14503662452658,3.4911790333361026
0.0062157420112911544,31.782692078315826,0.9925843443902249
0.002130122872264675,32.76340565568769,0.187508271775102
0.0016806640836950137,33.69325143210194,6.79207713841258
0.002508618885027508,39.232952143121224,2.764546660170777
0.006272955925300254,38.76404348499466,5.154946576693854
0.006135953095559896,35.601076506849765,2.4229315561452713
0.0055506825290718865,35.94534243068644,9.66112605270337
0.007726199290585718,31.70928621288575,0.7133538611448476
0.007873613358297463,35.19780402517665,2.0931106606486036
0.007393658034387178,34.60150425939134,5.726945220869807
0.0007804164484711862,32.12286916024634,2.610131734159782
6.206756256090129e-05,32.697677206581645,9.120086959696021
0.0012486901299894272,34.03311102114221,6.670420092441671
0.008162001503558183,31.655224786342224,5.977939307500818
0.000962582742854976,34.51027296268043,1.7756358683590034
0.004944135732400233,34.404507631742895,3.474730087089349
0.0026969898883180553,33.431067809924166,5.314119697212102
0.002036573392113115,30.37784941662415,1.0316149061847468
0.005576928758494344,34.97459600122618,0.7979610540121529
0.0013490311698592617,38.91562351398806,5.8081607917802565
0.009245408289931869,31.641543948636077,7.411452722794369
0.009928195247822184,38.36784172126552,9.189900729242991
0.006928643675139658,30.028085748240375,4.856641005329053
0.0011560521891859387,34.84854617552544,2.0788160533045428
0.006978512275343039,36.05855703036556,2.8036831423579036
0.0037445580048366144,30.511868862862865,4.331422738975974
0.0033791824488944443,35.21313828609648,5.770986649504854
0.008021686313317278,32.653149124345724,0.4227014751287317
0.0018599600619452618,34.785252337457926,3.928470757861616
0.005227408476632935,34.55589039681866,3.547639895169783
0.00670896164562809,35.595405509531474,8.79930228744561
0.008227437938623159,37.69153406029466,0.3696891875594144
0.00873062405753285,34.71951065058921,0.6741455207611535
0.005580285529538765,30.28971499899018,1.8207237310854585
0.006664645541319695,30.13667443009553,4.4599606074113165
0.008846461566480278,32.903576236405534,6.476661752887476
0.007418374205241705,30.1749606502995,3.9917258683305032
0.00041761087335993153,36.92056984545057,5.116305838664483
0.003918949283575482,35.66447580220203,3.6371636071465065
0.00878142310365337,34.40719580123464,3.3903987848023642
0.0015669876407853013,37.982317669832284,5.663556144172857
0.0005430241768197019,39.806769164369626,4.713125954428962
0.005258638066339768,30.156679265212695,4.830955529863548
0.008450918281221577,37.678061619954356,9.03967268586274
0.0029621822825460333,39.33080586931948,4.046387131644539
0.0016059244336805456,33.166167390227216,3.4888673813599738
0.008679703991107875,33.55624359674252,4.850429697140886
0.007409872139347189,38.60035568355843,2.887934346048974
0.0002862372726760132,38.43621309200802,4.144890717219063
0.0077548803316658975,34.178648487224706,7.44624470474607
0.00013525245283095954,32.73810719259462,0.8435543901494602
0.006048580033234386,36.79991725788019,5.505417447151039
0.008125615460615215,30.7418106970199,3.9264363119057757
0.0011425096634855181,34.89816916853445,8.762607508980235
0.001725385146427797,33.953129908597596,3.8498294870122027
0.001153781734067112,39.52172144442582,8.85660243197187
0.00970974438420404,33.548535703509934,7.40185386710165
0.0064720461981169755,34.01552199021368,4.615573008897887
0.004946981328017105,35.725207658580416,7.708594538489049
0.000588293820094391,39.08270934761862,3.7454242681353653
0.0043397086481496774,33.55482446337215,3.2499399854142763
0.003818048239013496,36.28305818960256,3.1143087841962167
0.0019089438243632163,35.91535920223769,4.690772523134033
0.00536516686911239,30.389707117719386,7.834246769572296
0.008863573548277267,36.363228074235494,1.0565341870158507
0.00041619968214860916,35.1158416859696,7.956504973417365
8.858364348359738e-05,34.002623410965526,8.715803797052397
0.0003434910922509382,37.414277137494786,3.2659482684668504
0.00445531381788147,33.907345092893465,1.2671754555574066
0.0041780809625685655,34.98258824664352,4.8459648007578435
0.008773941795804466,37.20381480336238,2.0263685280561825
0.007368735382440708,39.59932637313161,9.880917915950763
0.004231165084851162,31.527096035566295,5.94691026170392
0.00971198020321326,34.1089155963402,7.146088711885947
0.0027196634952207934,32.04614229705725,5.569025659095452
0.0010710625947663033,34.75426269201743,2.4136426885970916
0.008048602607590865,30.546743992286533,8.637371501776483
0.008485406823664448,30.10379155108729,1.1009151050438815
0.0013475041983218783,39.658857707135304,9.831152411016847
0.005530937218167109,36.20226776722965,6.466521506225453
0.004788091693753658,39.22504867942603,0.8821085189759448
0.005249276932830789,38.254842229410905,8.837303640965748
0.009517191823040533,30.052995225616108,1.1240862670325447
0.006067935141651583,39.90371140258697,8.60713174045182
0.008187305378021491,32.24700940671097,7.610032123810386
0.005443575487882676,32.31706678100554,0.751424343101107
0.006123136899630628,33.794528702749034,8.217937084623268
0.003934461869175937,34.26760361081528,5.44705767528704
0.004102616833078219,32.21333841247363,5.015019135404418
0.007157314786290834,37.4581875464753,3.8251924680603047
0.0006332893809897222,38.53427401167703,0.2585719290575961
0.004978405073108244,32.89939843974321,2.9714079129323903
0.0015376415873548245,34.46134798502672,3.2920436580241477
0.00446821995857062,31.096743101795756,7.9127483972082056
0.006748465614748027,34.90845268835886,9.95549611613311
0.009204086064157763,35.932588608045805,8.678635653685001
0.009182304826803926,32.25546870526884,4.703881174762746
0.0051471835897011755,33.90766704683433,2.9452386189519117
0.004614850642629663,30.818252289749825,2.6981731710059176
0.0001180435357934384,36.66270587114039,9.400321856662488
0.005568004547199158,32.0339477269586,0.8376509230589402
0.00969465249215368,31.030226664307182,2.5592223197538946
0.005406654310959234,31.74495338292545,9.732704836188901
0.008213254111218364,30.21866991110167,2.529671082891732
0.007640058825253651,38.494302738465095,0.038331512865639183
0.008356588868667608,36.378287961905144,9.697569006570337
0.0070533052495114715,34.08114613276136,0.04080334136296493
0.004674009340350902,32.96192459822042,7.952956655705666
0.006424975603839009,34.24371774867296,5.0907038682066075
0.0026974712147698476,39.40897029868924,8.417042125623484
0.0033424879541016153,37.170920264780804,1.5911294068991566
0.008456695426312827,33.699227229141776,1.199808308009187
0.00607849601858772,36.96757897965319,4.7151021683917005
0.008069164174262863,35.594281953474855,6.5545517389869445
0.0003396289804302177,34.544700114412386,4.3035968203280355
0.003816258981729118,30.779545195293043,0.5743727220999717
0.005130207206367183,36.84409927136279,9.325854917323452
0.008750184120065247,37.35245638865529,2.8829214959755056
0.008748105703161637,30.03213723928955,2.052138241467981
0.004791582436956895,38.754824509269056,5.1430666934274445
0.006752473264655499,31.592987460815234,7.061471222089347
0.0020894924106038214,35.815361911987736,1.662419895908196
0.004000197049143784,32.94025999984995,3.270499587392158
0.004081612659962331,31.67296344240044,4.801809532776846
0.0014255185482620924,38.59445300645841,5.057345148435916
0.0069946834816368856,35.32238107369653,4.0452005735509955
0.003358700537494952,31.388940074142127,6.922615594394575
0.006010311426687427,32.715311661956605,0.6337082691978269
0.005788425666680546,30.99026918531577,9.6930359926368
0.00364686845171163,39.16953762405384,5.86695067427746
0.0032766158156345947,39.21580376857017,0.6376273700800528
0.002861831266860826,38.12753728940222,6.944496465429166
0.00945570891932438,31.5759380836777,8.087617070388605
